# .PCD v.7 - Point Cloud Data file format
VERSION .7
FIELDS x y z normal_x normal_y normal_z curvature rgb
SIZE 4 4 4 4 4 4 4 4
TYPE F F F F F F F U
COUNT 1 1 1 1 1 1 1 1
WIDTH 671
HEIGHT 1
VIEWPOINT 0 0 0 1 0 0 0
POINTS 671
DATA ascii
0.756968 -0.265103 -0.0636707 0.0251746 -0.999585 0.0139719 0 8355711 
0.746363 -0.264975 -0.0639582 -0.00984708 -0.999888 0.0112277 0 8355711 
0.765443 -0.264322 -0.0631788 0.274206 -0.961189 0.0304577 0 8355711 
0.713143 -0.241944 -0.0634651 -0.989706 -0.143085 -0.00309798 0 8355711 
0.712538 -0.23548 -0.0631508 -0.995581 -0.0938048 -0.00440979 0 8355711 
-0.682679 -0.221369 -0.0635594 0.332224 -0.943004 0.01924 0 8355711 
-0.671896 -0.2115 -0.0632182 0.933152 -0.356851 0.0434021 0 8355711 
0.710323 -0.200651 -0.0630561 -0.996727 -0.0808425 0.0008221 0 8355711 
0.697441 -0.102997 -0.0632859 -0.980167 -0.198036 0.00734827 0 8355711 
0.66508 0.0132844 -0.0639247 -0.88835 -0.457612 0.037764 0 8355711 
0.659372 0.0235341 -0.0632564 -0.833597 -0.550283 0.0480107 0 8355711 
-0.652971 0.0316762 -0.0632905 0.992883 -0.117714 0.0180804 0 8355711 
0.503349 0.065871 -0.063425 -0.0287274 -0.997472 0.0649942 0 8355711 
0.0849879 0.0811838 -0.0633497 -0.0340362 -0.997945 0.0542902 0 8355711 
-0.377805 0.10013 -0.0636148 -0.0292938 -0.998304 0.0503169 0 8355711 
0.737395 -0.264778 -0.0621804 -0.0531802 -0.998546 0.00877267 0 8355711 
0.717412 -0.256121 -0.0626583 -0.84559 -0.533794 0.00644775 0 8355711 
-0.716738 -0.222239 -0.0622894 -0.0740025 -0.997257 0.00131834 0 8355711 
-0.688549 -0.222663 -0.0629237 0.155999 -0.987559 0.0197815 0 8355711 
-0.668076 -0.181178 -0.062044 0.9989 -0.0417664 0.0213066 0 8355711 
0.700563 -0.119485 -0.0629306 -0.983673 -0.179765 0.00849355 0 8355711 
0.683916 -0.0422602 -0.0625003 -0.967955 -0.251111 0.00252157 0 8355711 
-0.659764 -0.0405108 -0.0622399 0.997 -0.0745267 0.0208859 0 8355711 
0.667736 0.00786885 -0.0620198 -0.907149 -0.41969 0.0306707 0 8355711 
-0.647173 0.0592995 -0.0629107 0.937434 -0.346361 0.0353859 0 8355711 
0.614799 0.0595071 -0.0623844 -0.30116 -0.951266 0.0663051 0 8355711 
0.610629 0.0607364 -0.0627167 -0.249904 -0.96604 0.0656939 0 8355711 
0.600398 0.0628232 -0.0621197 -0.142507 -0.987595 0.0659399 0 8355711 
0.516012 0.0654707 -0.0628385 -0.0441951 -0.996555 0.0701766 0 8355711 
0.34983 0.0709826 -0.0628358 -0.0322864 -0.998185 0.0508288 0 8355711 
0.366026 0.0703393 -0.0625223 -0.0276548 -0.998229 0.0526755 0 8355711 
0.277101 0.0736991 -0.0623095 -0.0290987 -0.998108 0.0541609 0 8355711 
-0.638662 0.0754057 -0.0626571 0.840434 -0.54049 0.0392445 0 8355711 
-0.0563694 0.0867984 -0.0627512 -0.0344251 -0.998523 0.0420263 0 8355711 
-0.363368 0.099736 -0.0628169 -0.0371377 -0.997871 0.0536206 0 8355711 
-0.353727 0.0992524 -0.0623798 -0.0465044 -0.997752 0.0482459 0 8355711 
-0.414568 0.103689 -0.0622808 -0.107742 -0.992604 0.0559371 0 8355711 
-0.487577 0.108948 -0.0621519 -0.0953558 -0.986357 0.13419 0 8355711 
-0.479437 0.108132 -0.0620822 -0.0941105 -0.990178 0.1034 0 8355711 
-0.495716 0.109744 -0.0622147 -0.0846167 -0.983754 0.158327 0 8355711 
-0.504857 0.11052 -0.0622411 -0.0723488 -0.984514 0.159682 0 8355711 
-0.534753 0.111981 -0.0629955 -0.0303561 -0.994072 0.1044 0 8355711 
0.765513 -0.26427 -0.0610326 0.27935 -0.960102 0.0129813 0 8355711 
0.720108 -0.259636 -0.0614476 -0.705812 -0.708352 0.00819228 0 8355711 
-0.697466 -0.223161 -0.0614278 0.0201509 -0.999683 0.0150667 0 8355711 
0.7096 -0.191389 -0.0616322 -0.99586 -0.0908761 0.00216039 0 8355711 
0.706259 -0.159578 -0.0617312 -0.992178 -0.124529 0.00862769 0 8355711 
-0.665065 -0.11716 -0.061462 0.998523 -0.0469458 0.0273547 0 8355711 
-0.6503 0.048843 -0.0611278 0.976768 -0.213 0.0235824 0 8355711 
0.636076 0.0487342 -0.0611724 -0.578103 -0.812023 0.0800974 0 8355711 
0.623232 0.0562967 -0.0614471 -0.410751 -0.909443 0.064779 0 8355711 
0.618996 0.0580636 -0.0619743 -0.355455 -0.932353 0.0661062 0 8355711 
0.534514 0.0648606 -0.0618086 -0.0250033 -0.997541 0.065476 0 8355711 
0.473183 0.0669417 -0.0611067 -0.0244692 -0.998104 0.0564794 0 8355711 
0.486828 0.0663021 -0.0612603 -0.0267629 -0.99798 0.057619 0 8355711 
-0.641213 0.0713744 -0.0611091 0.861242 -0.506882 0.0365068 0 8355711 
0.331737 0.0716502 -0.0613669 -0.0269326 -0.99861 0.045311 0 8355711 
0.267563 0.0741768 -0.0611491 -0.0324021 -0.997647 0.0604264 0 8355711 
-0.631973 0.0843679 -0.0618662 0.770883 -0.635341 0.0456161 0 8355711 
-0.157015 0.09089 -0.0616727 -0.0356391 -0.99865 0.0377879 0 8355711 
-0.218676 0.0931651 -0.0618434 -0.029931 -0.998521 0.045394 0 8355711 
-0.397134 0.100804 -0.061721 -0.0225674 -0.998877 0.0416644 0 8355711 
-0.606023 0.1054 -0.0617754 0.46787 -0.881998 0.0563692 0 8355711 
-0.596373 0.109759 -0.0615035 0.339836 -0.938989 0.0530118 0 8355711 
-0.567503 0.113229 -0.0614652 -0.0039741 -0.999285 0.0376093 0 8355711 
0.731444 -0.264318 -0.0600536 -0.117612 -0.99302 0.0088229 0 8355711 
0.763664 -0.264793 -0.0607891 0.23697 -0.971419 0.0138162 0 8355711 
0.727347 -0.263687 -0.0601688 -0.247873 -0.968792 -0.000829853 0 8355711 
0.723124 -0.262028 -0.0606568 -0.510506 -0.859755 0.0143112 0 8355711 
-0.716596 -0.222231 -0.0601608 -0.0685137 -0.997567 0.0128685 0 8355711 
-0.71255 -0.222541 -0.0601636 -0.0642922 -0.997802 0.0160441 0 8355711 
-0.678622 -0.219441 -0.0601202 0.551406 -0.831594 0.0663545 0 8355711 
-0.668858 -0.195248 -0.0607333 0.997278 -0.0711075 0.0195277 0 8355711 
0.708846 -0.182944 -0.0609737 -0.99472 -0.102509 0.00485774 0 8355711 
0.707976 -0.174426 -0.0600726 -0.993536 -0.113282 0.00727386 0 8355711 
0.646143 0.0400826 -0.0604186 -0.705765 -0.706253 0.0557051 0 8355711 
-0.651359 0.0435033 -0.060741 0.985421 -0.168808 0.0212017 0 8355711 
0.627508 0.0541902 -0.0607967 -0.474561 -0.877652 0.0672288 0 8355711 
0.606616 0.0617923 -0.0608601 -0.199182 -0.97786 0.0641646 0 8355711 
0.164516 0.0782583 -0.0602625 -0.0302038 -0.997889 0.0574839 0 8355711 
-0.6348 0.0809329 -0.0605278 0.794851 -0.605205 0.0440191 0 8355711 
-0.0785948 0.0876633 -0.0605808 -0.0341547 -0.998493 0.042948 0 8355711 
-0.0962994 0.0886164 -0.0604295 -0.0343165 -0.998627 0.0395787 0 8355711 
-0.624791 0.0922167 -0.0606809 0.693659 -0.71792 0.0585525 0 8355711 
-0.256333 0.094807 -0.0607097 -0.0370222 -0.998496 0.0404415 0 8355711 
-0.609803 0.103429 -0.0609473 0.509299 -0.858835 0.0549258 0 8355711 
-0.468185 0.10708 -0.0609484 -0.0928768 -0.992774 0.0759902 0 8355711 
-0.519951 0.111775 -0.0601461 -0.0401326 -0.987271 0.153899 0 8355711 
-0.58847 0.112044 -0.0604281 0.213808 -0.975624 0.0494281 0 8355711 
-0.560388 0.113136 -0.0605668 -0.0193844 -0.998831 0.0442808 0 8355711 
0.714003 -0.246847 -0.0595638 -0.975528 -0.219694 -0.00890437 0 8355711 
-0.673688 -0.214787 -0.0598358 0.797884 -0.599126 0.0665626 0 8355711 
0.679061 -0.0240725 -0.0594332 -0.958443 -0.285248 0.00453485 0 8355711 
0.67171 -0.00153005 -0.0597552 -0.932675 -0.360253 0.0183198 0 8355711 
0.662318 0.0188414 -0.0594886 -0.8676 -0.495476 0.0421249 0 8355711 
0.649518 0.0366344 -0.0592514 -0.738712 -0.672308 0.0480211 0 8355711 
0.631836 0.0516746 -0.0599981 -0.525178 -0.847803 0.0736019 0 8355711 
0.593444 0.0638141 -0.0590931 -0.0840943 -0.994388 0.0641944 0 8355711 
-0.643584 0.06736 -0.0595726 0.882422 -0.469095 0.0357808 0 8355711 
0.0771216 0.0817064 -0.0595917 -0.0293525 -0.998187 0.0525467 0 8355711 
0.0617622 0.0820722 -0.0590347 -0.0241856 -0.9985 0.049129 0 8355711 
0.0281134 0.0835752 -0.059426 -0.0345191 -0.998031 0.0523755 0 8355711 
-0.628371 0.0886074 -0.0592587 0.73684 -0.674098 0.0515615 0 8355711 
-0.114892 0.0893387 -0.0597675 -0.0331218 -0.998574 0.0418616 0 8355711 
-0.195735 0.0923676 -0.0596589 -0.0297381 -0.998381 0.0484924 0 8355711 
-0.240256 0.0940711 -0.0594287 -0.0293105 -0.998225 0.0518452 0 8355711 
-0.274118 0.0956606 -0.0590514 -0.0330643 -0.998739 0.037779 0 8355711 
-0.287055 0.0961016 -0.0599139 -0.0315568 -0.998644 0.0414147 0 8355711 
-0.613536 0.101069 -0.0599776 0.557805 -0.828578 0.04809 0 8355711 
-0.404094 0.101282 -0.0595755 -0.142071 -0.98985 -0.00364565 0 8355711 
-0.544171 0.112585 -0.0597578 -0.0158382 -0.9963 0.0844706 0 8355711 
-0.576421 0.113303 -0.0591074 0.0373692 -0.998706 0.034488 0 8355711 
0.765528 -0.264271 -0.0586521 0.273145 -0.961972 0.00160993 0 8355711 
0.714978 -0.250529 -0.0582421 -0.945891 -0.324437 -0.00557445 0 8355711 
-0.669435 -0.200976 -0.0586197 0.99016 -0.138377 0.0208663 0 8355711 
0.675796 -0.0133232 -0.0582167 -0.949943 -0.312333 0.00752768 0 8355711 
0.652516 0.0331485 -0.0580602 -0.773137 -0.63238 0.0485291 0 8355711 
-0.649053 0.0541119 -0.0588304 0.961119 -0.274048 0.0338802 0 8355711 
-0.645659 0.0633744 -0.0580553 0.911129 -0.410413 0.037494 0 8355711 
0.56217 0.0647406 -0.0585561 -0.00506328 -0.998666 0.0513959 0 8355711 
0.521837 0.0652651 -0.058669 -0.0309745 -0.997356 0.0657401 0 8355711 
0.45896 0.06723 -0.0586845 -0.0175398 -0.998248 0.0565175 0 8355711 
0.107503 0.0803796 -0.0589009 -0.036515 -0.997875 0.0539589 0 8355711 
-0.140224 0.0902715 -0.0583927 -0.0308124 -0.998384 0.0477511 0 8355711 
-0.304956 0.0971681 -0.0587323 -0.036822 -0.998183 0.0476988 0 8355711 
-0.617254 0.098587 -0.0589638 0.584665 -0.810153 0.0426386 0 8355711 
-0.388393 0.100878 -0.058796 -0.0285805 -0.998355 0.0497051 0 8355711 
-0.446766 0.105611 -0.0588901 -0.0565579 -0.997251 0.04788 0 8355711 
-0.602001 0.107629 -0.0584429 0.416874 -0.907072 0.0586265 0 8355711 
-0.527928 0.112393 -0.0580134 -0.0203565 -0.988886 0.147274 0 8355711 
0.71904 -0.258377 -0.0576172 -0.796865 -0.604123 0.00649107 0 8355711 
0.713021 -0.240855 -0.0574676 -0.990804 -0.134938 -0.00990976 0 8355711 
-0.716505 -0.222232 -0.057992 -0.0614721 -0.998038 0.0118868 0 8355711 
0.689429 -0.0651038 -0.0572233 -0.972742 -0.231875 0.00255578 0 8355711 
-0.657014 -0.00857404 -0.0577632 0.996158 -0.0851228 0.0205788 0 8355711 
0.669803 0.00342765 -0.0572548 -0.921298 -0.388174 0.0230346 0 8355711 
0.641461 0.0447681 -0.05774 -0.641847 -0.763969 0.066212 0 8355711 
0.54308 0.0646971 -0.0579984 -0.021428 -0.997793 0.062853 0 8355711 
0.572287 0.0647721 -0.0577824 0.00368236 -0.998104 0.0614385 0 8355711 
0.580352 0.0645707 -0.0579366 -0.025138 -0.997764 0.0619215 0 8355711 
0.428976 0.0683627 -0.057447 -0.0296365 -0.997629 0.062121 0 8355711 
0.379606 0.0701548 -0.0571145 -0.0267215 -0.998562 0.0464691 0 8355711 
0.0425272 0.0829612 -0.0573503 -0.0412141 -0.997928 0.0494122 0 8355711 
-0.620946 0.0958876 -0.0578715 0.643807 -0.76349 0.0509369 0 8355711 
-0.425447 0.104454 -0.057996 -0.0432239 -0.997789 0.0504926 0 8355711 
-0.598046 0.109301 -0.0570374 0.364241 -0.929374 0.0599334 0 8355711 
-0.594191 0.110659 -0.0576434 0.313837 -0.947454 0.0619504 0 8355711 
-0.552113 0.112904 -0.0575174 -0.0186236 -0.997505 0.068099 0 8355711 
0.753925 -0.265082 -0.0561409 0.00415877 -0.999938 0.010287 0 8355711 
0.759949 -0.265048 -0.0563297 0.0636432 -0.997905 0.0116548 0 8355711 
0.76393 -0.264727 -0.0565594 0.242333 -0.969875 0.0248294 0 8355711 
0.765439 -0.264325 -0.0567494 0.266334 -0.963518 0.0264448 0 8355711 
0.723416 -0.262173 -0.056351 -0.453837 -0.891008 0.01165 0 8355711 
0.716477 -0.254157 -0.0569541 -0.887029 -0.461713 -0.000708863 0 8355711 
-0.686186 -0.222187 -0.056774 0.216514 -0.975758 0.0319115 0 8355711 
-0.670667 -0.206776 -0.0564625 0.966081 -0.256457 0.0302779 0 8355711 
0.673604 -0.00667657 -0.0568609 -0.94243 -0.334241 0.0104704 0 8355711 
0.655311 0.0296429 -0.0568559 -0.79298 -0.607171 0.0502609 0 8355711 
-0.647396 0.0594217 -0.0565596 0.937361 -0.346028 0.0402341 0 8355711 
0.548241 0.0647041 -0.0560149 0.00142595 -0.997629 0.068808 0 8355711 
0.395223 0.0696348 -0.0568245 -0.0327825 -0.99782 0.0572779 0 8355711 
0.284889 0.0737092 -0.0566705 -0.0257884 -0.998361 0.0510881 0 8355711 
0.149691 0.0788212 -0.056992 -0.0235866 -0.998455 0.0503137 0 8355711 
0.0970394 0.0810537 -0.0561867 -0.0362547 -0.998297 0.0457034 0 8355711 
-0.00921647 0.0849487 -0.0564837 -0.0394169 -0.99841 0.0403076 0 8355711 
-0.17948 0.0920266 -0.056933 -0.0275615 -0.998289 0.0515606 0 8355711 
-0.316929 0.097569 -0.0564107 -0.0351778 -0.998496 0.04205 0 8355711 
-0.337014 0.0984621 -0.0561702 -0.0377514 -0.998873 0.0287758 0 8355711 
0.73172 -0.264338 -0.0557927 -0.112814 -0.993565 0.0101126 0 8355711 
0.735786 -0.264715 -0.0557695 -0.0658809 -0.997756 0.0119257 0 8355711 
0.765226 -0.264307 -0.0551872 0.285218 -0.957686 0.0385771 0 8355711 
0.727623 -0.263708 -0.0559077 -0.242971 -0.969964 0.0115999 0 8355711 
0.712095 -0.230262 -0.0559943 -0.996472 -0.083026 -0.0122912 0 8355711 
-0.716517 -0.222231 -0.0559019 -0.0531055 -0.998453 0.0164699 0 8355711 
-0.714307 -0.222364 -0.0559156 -0.0569307 -0.998215 0.0180242 0 8355711 
-0.68217 -0.221048 -0.0551712 0.389911 -0.918929 0.0594869 0 8355711 
0.702087 -0.128165 -0.0552691 -0.986189 -0.165587 0.00356838 0 8355711 
0.693706 -0.084432 -0.0558615 -0.976873 -0.213815 0.00175034 0 8355711 
0.68173 -0.0337359 -0.0559721 -0.964681 -0.263416 0.00155832 0 8355711 
0.665023 0.0141111 -0.0557059 -0.888446 -0.457472 0.0371972 0 8355711 
0.65796 0.0261232 -0.0556422 -0.81615 -0.576275 0.0425044 0 8355711 
0.619382 0.058255 -0.0556644 -0.360029 -0.931111 0.0584023 0 8355711 
0.2531 0.0749091 -0.055947 -0.02872 -0.998127 0.0540146 0 8355711 
-0.638664 0.0759182 -0.0553841 0.836522 -0.546407 0.0408751 0 8355711 
0.135006 0.0790397 -0.0559952 -0.0253396 -0.998625 0.0458989 0 8355711 
-0.365481 0.100085 -0.0559633 -0.0260353 -0.999272 0.0279012 0 8355711 
-0.397766 0.101096 -0.0554206 0.0251536 -0.997628 0.0640815 0 8355711 
-0.412153 0.103676 -0.0559633 -0.171504 -0.98391 0.0500765 0 8355711 
-0.416218 0.104041 -0.0559824 -0.072115 -0.996249 0.0478339 0 8355711 
-0.470944 0.107766 -0.0557986 -0.112975 -0.988719 0.0983462 0 8355711 
-0.479103 0.108736 -0.0559241 -0.117038 -0.984769 0.128579 0 8355711 
-0.509123 0.111937 -0.0559798 -0.0576954 -0.981597 0.182039 0 8355711 
-0.705126 -0.222912 -0.0549094 -0.036349 -0.99917 0.018396 0 8355711 
-0.691991 -0.22292 -0.0542126 0.0964136 -0.995102 0.0218361 0 8355711 
-0.666007 -0.131919 -0.0549675 0.998517 -0.0467921 0.0278365 0 8355711 
-0.662126 -0.0687981 -0.0540153 0.997474 -0.0668014 0.0241595 0 8355711 
0.660351 0.0225776 -0.0544118 -0.846132 -0.531569 0.0386659 0 8355711 
0.637262 0.0483496 -0.054666 -0.59194 -0.803455 0.0637796 0 8355711 
0.611138 0.0610522 -0.0543243 -0.256942 -0.964688 0.0579515 0 8355711 
0.606995 0.062061 -0.0545767 -0.210539 -0.975722 0.0603371 0 8355711 
0.587607 0.0644539 -0.054903 -0.0492323 -0.996907 0.0612657 0 8355711 
0.441665 0.0679752 -0.0544696 -0.0321568 -0.996464 0.0776219 0 8355711 
0.216953 0.076362 -0.0541243 -0.0345898 -0.998147 0.0500558 0 8355711 
-0.624463 0.0928965 -0.0545478 0.687498 -0.724693 0.0465487 0 8355711 
-0.324899 0.0981041 -0.0542521 -0.0422384 -0.998463 0.0358946 0 8355711 
-0.454074 0.106266 -0.0541251 -0.068127 -0.996241 0.0534951 0 8355711 
-0.584148 0.112963 -0.0544997 0.120627 -0.992215 0.0309737 0 8355711 
-0.57057 0.113464 -0.0540032 0.00879217 -0.999407 0.0332826 0 8355711 
0.718071 -0.257108 -0.0537933 -0.807761 -0.589508 -0.0017854 0 8355711 
0.713537 -0.244848 -0.0538921 -0.982219 -0.18715 -0.0148896 0 8355711 
-0.716663 -0.222171 -0.0532662 -0.060997 -0.997905 0.0215535 0 8355711 
-0.668808 -0.192519 -0.0532108 0.998352 -0.0538306 0.0198715 0 8355711 
-0.667596 -0.165216 -0.0532533 0.999116 -0.0319064 0.0273593 0 8355711 
-0.664647 -0.105787 -0.0531204 0.998286 -0.0517945 0.027235 0 8355711 
0.667623 0.00870028 -0.0537965 -0.908777 -0.416366 0.0276412 0 8355711 
0.662503 0.0190086 -0.0531662 -0.867643 -0.495778 0.0374207 0 8355711 
-0.652251 0.0386714 -0.0530883 0.99079 -0.133579 0.0221611 0 8355711 
-0.648621 0.0561978 -0.053215 0.956871 -0.288801 0.0315056 0 8355711 
0.62375 0.0565303 -0.053025 -0.411518 -0.909606 0.0571737 0 8355711 
0.615309 0.0598166 -0.0539898 -0.308182 -0.949524 0.0585519 0 8355711 
0.495908 0.0664117 -0.0530285 -0.0213322 -0.998583 0.0487569 0 8355711 
0.503977 0.0661653 -0.0531693 -0.0248291 -0.998105 0.056296 0 8355711 
0.411586 0.0691334 -0.0536447 -0.0314719 -0.997759 0.0590404 0 8355711 
0.0699376 0.0821633 -0.0531663 -0.0202016 -0.998728 0.0462085 0 8355711 
-0.632467 0.0842775 -0.053295 0.77821 -0.626399 0.0448786 0 8355711 
-0.02174 0.0857285 -0.0533512 -0.0386199 -0.998516 0.0383877 0 8355711 
-0.0404818 0.0864074 -0.0530751 -0.0333129 -0.998764 0.0369014 0 8355711 
-0.101947 0.0889914 -0.0537465 -0.0313186 -0.998811 0.0373554 0 8355711 
-0.403642 0.100974 -0.0530763 -0.0865017 -0.996183 -0.0116862 0 8355711 
-0.407818 0.102284 -0.0534396 -0.330172 -0.943864 0.0103432 0 8355711 
-0.605561 0.106097 -0.0535209 0.466188 -0.8829 0.0561837 0 8355711 
-0.462668 0.106976 -0.05361 -0.097378 -0.992292 0.07664 0 8355711 
-0.593957 0.110977 -0.0535053 0.296414 -0.953738 0.0502306 0 8355711 
-0.590057 0.111963 -0.0539761 0.223856 -0.973592 0.0448065 0 8355711 
-0.494807 0.111069 -0.0539344 -0.0986006 -0.97835 0.181957 0 8355711 
-0.546843 0.113142 -0.0534923 0.000460296 -0.995465 0.0951293 0 8355711 
-0.540808 0.113097 -0.0536469 0.00276473 -0.992797 0.119773 0 8355711 
-0.534772 0.113055 -0.0538025 -0.000660255 -0.989832 0.142238 0 8355711 
0.760222 -0.265046 -0.0520769 0.0738611 -0.997235 0.00818577 0 8355711 
0.74384 -0.264913 -0.0521936 -0.0176816 -0.999788 0.0105748 0 8355711 
0.76445 -0.264548 -0.0523785 0.300629 -0.953737 -0.0028838 0 8355711 
0.723696 -0.26223 -0.0520769 -0.468145 -0.883437 0.0194848 0 8355711 
0.721237 -0.260577 -0.0526128 -0.630333 -0.776206 0.0135734 0 8355711 
0.714288 -0.248555 -0.0525564 -0.965272 -0.26123 0.00316077 0 8355711 
-0.673892 -0.214421 -0.0527739 0.802548 -0.594225 0.0530413 0 8355711 
0.711112 -0.214192 -0.0521285 -0.997614 -0.0678371 -0.0128396 0 8355711 
-0.667031 -0.149076 -0.0521204 0.998858 -0.0378609 0.029133 0 8355711 
0.696649 -0.098766 -0.0528278 -0.979395 -0.20195 0.00101694 0 8355711 
-0.654941 0.014485 -0.0520815 0.995635 -0.0911932 0.0198784 0 8355711 
0.644152 0.0426151 -0.0527671 -0.701183 -0.711102 0.0517358 0 8355711 
0.628025 0.0544447 -0.0523821 -0.468845 -0.881406 0.0575096 0 8355711 
0.5928 0.0642131 -0.0528299 -0.0771319 -0.995467 0.0556393 0 8355711 
-0.642264 0.0702173 -0.0521339 0.870626 -0.49056 0.0369082 0 8355711 
0.359675 0.0710934 -0.0524954 -0.0306613 -0.99819 0.0517318 0 8355711 
0.0111642 0.0844935 -0.0524891 -0.0285861 -0.998625 0.0439528 0 8355711 
-0.234802 0.0942296 -0.0527104 -0.0304609 -0.998408 0.0474686 0 8355711 
-0.609338 0.104106 -0.0526856 0.504475 -0.86189 0.0514831 0 8355711 
-0.601651 0.108136 -0.052248 0.41255 -0.90963 0.0487381 0 8355711 
-0.597818 0.109675 -0.0529198 0.360901 -0.931082 0.0532665 0 8355711 
-0.579027 0.113306 -0.0526429 0.0586362 -0.997938 0.0261069 0 8355711 
0.734031 -0.264531 -0.0515196 -0.0809468 -0.996634 0.0129941 0 8355711 
-0.716901 -0.222135 -0.0516651 -0.062432 -0.997936 0.0150536 0 8355711 
-0.712006 -0.222484 -0.051672 -0.059349 -0.998118 0.0154129 0 8355711 
-0.669236 -0.198233 -0.0511074 0.995741 -0.0903924 0.0181459 0 8355711 
0.703306 -0.136145 -0.05185 -0.988554 -0.150862 0.00118021 0 8355711 
0.699753 -0.114796 -0.0515743 -0.982257 -0.187539 0.000329872 0 8355711 
-0.659437 -0.0340122 -0.0514454 0.996763 -0.0775588 0.0211694 0 8355711 
0.647547 0.0391694 -0.0516013 -0.721396 -0.690962 0.0464594 0 8355711 
0.632349 0.0519521 -0.0515918 -0.528647 -0.846628 0.0612659 0 8355711 
0.527059 0.0657884 -0.0510199 -0.0187788 -0.998274 0.0556522 0 8355711 
0.556562 0.065222 -0.0511097 -0.0146118 -0.998828 0.0461382 0 8355711 
0.485654 0.0668526 -0.0513031 -0.0296616 -0.998284 0.0504893 0 8355711 
0.298483 0.0734911 -0.0511173 -0.0298828 -0.998577 0.0441647 0 8355711 
-0.636106 0.0797508 -0.0515363 0.807384 -0.588662 0.040112 0 8355711 
0.117711 0.0802165 -0.0511372 -0.0336958 -0.998325 0.0470311 0 8355711 
-0.627957 0.0896877 -0.0511433 0.725037 -0.687129 0.0466253 0 8355711 
-0.171034 0.0919512 -0.0510135 -0.036567 -0.998143 0.0487083 0 8355711 
-0.613083 0.10185 -0.0517544 0.559199 -0.827696 0.0470697 0 8355711 
-0.522548 0.113417 -0.0510823 -0.017337 -0.982829 0.1837 0 8355711 
0.764305 -0.264629 -0.0505669 0.176891 -0.984229 -0.00161833 0 8355711 
0.713244 -0.243513 -0.0501115 -0.984092 -0.177535 -0.00660103 0 8355711 
0.712438 -0.235349 -0.0509447 -0.995076 -0.0977736 -0.0162628 0 8355711 
-0.717149 -0.222115 -0.0507377 -0.0666895 -0.997621 0.0174765 0 8355711 
0.709812 -0.194273 -0.0504622 -0.996597 -0.0820422 -0.00793635 0 8355711 
0.671423 -0.000382493 -0.0505812 -0.934736 -0.355138 0.0120786 0 8355711 
0.650803 0.0357089 -0.0504267 -0.748564 -0.661354 0.047561 0 8355711 
-0.650303 0.0498978 -0.0508604 0.975198 -0.220092 0.0234027 0 8355711 
0.598017 0.0637771 -0.0506854 -0.113482 -0.991896 0.0571259 0 8355711 
0.603127 0.0630475 -0.0505678 -0.166853 -0.984284 0.0578382 0 8355711 
0.564722 0.0647936 -0.0501218 0.00691904 -0.998478 0.0547179 0 8355711 
-0.644503 0.0662162 -0.0506059 0.894357 -0.446245 0.0314856 0 8355711 
-0.0681804 0.0878068 -0.0501355 -0.0360825 -0.998337 0.0449589 0 8355711 
-0.212942 0.0934186 -0.0506373 -0.0298985 -0.998463 0.0466688 0 8355711 
-0.266358 0.0954963 -0.0501596 -0.0352006 -0.998854 0.0324351 0 8355711 
-0.616785 0.0992338 -0.0506923 0.589467 -0.80668 0.0423867 0 8355711 
-0.353006 0.0995014 -0.0507745 -0.0596361 -0.997759 0.030331 0 8355711 
-0.371186 0.100208 -0.0505252 -0.0147447 -0.999676 0.0207414 0 8355711 
-0.361073 0.100002 -0.0501952 -0.0347604 -0.999059 0.0259493 0 8355711 
-0.399465 0.101406 -0.0500228 0.081416 -0.996126 -0.0332306 0 8355711 
0.754333 -0.26507 -0.0497661 0.00629064 -0.999929 0.0101514 0 8355711 
0.72805 -0.263813 -0.0494855 -0.229258 -0.97331 0.0104343 0 8355711 
0.715326 -0.251545 -0.0493568 -0.933613 -0.358243 0.00530952 0 8355711 
-0.698738 -0.223023 -0.0497171 0.00611019 -0.99972 0.0228642 0 8355711 
-0.66971 -0.202062 -0.0496926 0.98762 -0.15574 0.018746 0 8355711 
0.690689 -0.0706007 -0.0499209 -0.973996 -0.226566 -0.000464263 0 8355711 
0.665155 0.014285 -0.0493792 -0.892903 -0.449465 0.0265405 0 8355711 
-0.653837 0.0259758 -0.0491952 0.994598 -0.101804 0.0202861 0 8355711 
0.653758 0.0322185 -0.0492327 -0.779511 -0.624404 0.0498223 0 8355711 
0.619768 0.0584668 -0.0493604 -0.361394 -0.930786 0.0550625 0 8355711 
-0.646414 0.0622475 -0.0490992 0.919052 -0.393238 0.0266035 0 8355711 
0.515049 0.0659512 -0.0496723 -0.0266034 -0.998189 0.0539524 0 8355711 
-0.620485 0.0965996 -0.0496232 0.623796 -0.780615 0.0389619 0 8355711 
-0.383222 0.100577 -0.0492513 -0.0388885 -0.999187 0.0106715 0 8355711 
-0.393367 0.101388 -0.0492507 -0.0176498 -0.999739 -0.0145116 0 8355711 
-0.416848 0.104373 -0.0496854 -0.0532737 -0.997254 0.0514424 0 8355711 
-0.411776 0.104024 -0.0497019 -0.254379 -0.966423 0.036297 0 8355711 
-0.467533 0.107893 -0.0495493 -0.128537 -0.986625 0.100244 0 8355711 
-0.474694 0.108946 -0.049731 -0.142731 -0.981327 0.128936 0 8355711 
-0.589808 0.112163 -0.0497954 0.213905 -0.976165 0.0367002 0 8355711 
-0.555657 0.11349 -0.0491085 0.00762998 -0.997431 0.0712196 0 8355711 
0.763703 -0.2647 -0.0480407 0.102851 -0.994694 0.00234463 0 8355711 
0.719878 -0.259347 -0.0487636 -0.734624 -0.678456 0.00506438 0 8355711 
0.716993 -0.255156 -0.0480796 -0.861056 -0.508509 0.00122629 0 8355711 
0.71399 -0.24722 -0.0487755 -0.969113 -0.246601 0.00302343 0 8355711 
-0.717898 -0.221998 -0.0485732 -0.29987 -0.952977 0.0437427 0 8355711 
-0.683726 -0.221346 -0.0486349 0.332244 -0.943179 0.00522373 0 8355711 
-0.670544 -0.205927 -0.0482546 0.971484 -0.23583 0.0245773 0 8355711 
0.704917 -0.14811 -0.0488468 -0.990878 -0.134747 0.00184889 0 8355711 
0.68526 -0.0477015 -0.0484295 -0.96923 -0.246156 -0.00027392 0 8355711 
0.656486 0.0287057 -0.0480239 -0.80637 -0.589691 0.0450689 0 8355711 
-0.651562 0.0437948 -0.0480588 0.986076 -0.165246 0.0186749 0 8355711 
0.580912 0.0650175 -0.0485298 -0.0265269 -0.998129 0.0550956 0 8355711 
0.470934 0.0673744 -0.0484219 -0.0224294 -0.998654 0.0467639 0 8355711 
0.453772 0.0680692 -0.048058 -0.0295756 -0.997392 0.0658309 0 8355711 
0.344911 0.0717842 -0.0480769 -0.0355491 -0.997989 0.0524772 0 8355711 
-0.0878322 0.0886149 -0.0481515 -0.0317167 -0.998611 0.0420804 0 8355711 
-0.624129 0.0935019 -0.0483861 0.681334 -0.730727 0.0426856 0 8355711 
-0.297629 0.0968834 -0.0489783 -0.0481528 -0.998426 0.0287639 0 8355711 
-0.584741 0.112955 -0.0480864 0.122084 -0.992134 0.0276678 0 8355711 
-0.563702 0.113515 -0.0488935 0.00271505 -0.998905 0.0467022 0 8355711 
-0.512311 0.113576 -0.0482345 -0.0358161 -0.978734 0.201984 0 8355711 
0.760491 -0.265011 -0.0478362 0.0793773 -0.996828 0.00581993 0 8355711 
0.732274 -0.264396 -0.0472652 -0.0979243 -0.995182 0.00487459 0 8355711 
-0.713764 -0.222333 -0.0474201 -0.0788431 -0.99649 0.0281481 0 8355711 
-0.707682 -0.222721 -0.047443 -0.0458231 -0.998726 0.0211145 0 8355711 
-0.693591 -0.222913 -0.0477771 0.0520893 -0.998407 0.0216998 0 8355711 
-0.689603 -0.222646 -0.0479874 0.139823 -0.990136 0.0089889 0 8355711 
-0.7182 -0.221759 -0.0475051 -0.478391 -0.870387 -0.116481 0 8355711 
-0.717827 -0.221977 -0.0474358 -0.449109 -0.89016 -0.076923 0 8355711 
0.706866 -0.163966 -0.0470925 -0.992538 -0.121915 0.00241705 0 8355711 
-0.663799 -0.0900137 -0.047467 0.997916 -0.0589359 0.0262798 0 8355711 
0.674224 -0.0083725 -0.0477327 -0.945896 -0.3244 0.00680687 0 8355711 
-0.64803 0.0583063 -0.0476111 0.945416 -0.325235 0.0202785 0 8355711 
0.615692 0.060031 -0.0476882 -0.308426 -0.949841 0.0517163 0 8355711 
0.536101 0.0654475 -0.0479531 -0.0270296 -0.998402 0.049624 0 8355711 
0.315913 0.0728747 -0.0471884 -0.0302878 -0.998398 0.0477928 0 8355711 
-0.631384 0.0859574 -0.0475512 0.772362 -0.633616 0.0445749 0 8355711 
-0.433516 0.105263 -0.0471512 -0.0483389 -0.99795 0.0419367 0 8355711 
-0.594559 0.110978 -0.0470855 0.310022 -0.950101 0.0345643 0 8355711 
0.763502 -0.264727 -0.0469173 0.100885 -0.994898 0.000441754 0 8355711 
-0.718428 -0.221821 -0.0468147 -0.383824 -0.912439 -0.141897 0 8355711 
-0.668665 -0.186941 -0.046735 0.998861 -0.0415168 0.0235275 0 8355711 
0.677623 -0.0191376 -0.046818 -0.955702 -0.294331 0.0019294 0 8355711 
0.658976 0.0251699 -0.0467999 -0.830985 -0.555062 0.0370161 0 8355711 
0.636988 0.0491249 -0.0464265 -0.586093 -0.80823 0.0570861 0 8355711 
-0.649267 0.0544024 -0.0461474 0.962807 -0.269652 0.0170444 0 8355711 
0.607504 0.0623691 -0.0461817 -0.216091 -0.974962 0.0524843 0 8355711 
0.587097 0.064899 -0.0465258 -0.0469497 -0.99733 0.0559251 0 8355711 
0.545768 0.065289 -0.046575 -0.00091063 -0.998345 0.057505 0 8355711 
0.57095 0.0654217 -0.0462641 0.0145255 -0.997917 0.0628606 0 8355711 
-0.639751 0.0747577 -0.0464064 0.845768 -0.532369 0.0354907 0 8355711 
0.165888 0.0787052 -0.0460812 -0.0323892 -0.998646 0.040707 0 8355711 
0.13278 0.0799801 -0.0461516 -0.0349608 -0.997526 0.0609811 0 8355711 
0.0354361 0.0838175 -0.0469401 -0.0409599 -0.998341 0.0404656 0 8355711 
-0.119204 0.0900602 -0.0464601 -0.0365465 -0.998605 0.0381064 0 8355711 
-0.224931 0.0940548 -0.0462664 -0.0318809 -0.998546 0.0434758 0 8355711 
-0.343096 0.0987464 -0.0465242 -0.05771 -0.998141 0.0195825 0 8355711 
-0.403171 0.100442 -0.0465106 -0.198026 -0.970448 -0.137897 0 8355711 
-0.407375 0.101945 -0.0469423 -0.375328 -0.926265 0.0340785 0 8355711 
-0.445488 0.105991 -0.0462796 -0.0595933 -0.997172 0.0457826 0 8355711 
-0.485292 0.111144 -0.0467742 -0.144726 -0.973969 0.174468 0 8355711 
-0.535656 0.11421 -0.0462094 0.0285206 -0.986239 0.162849 0 8355711 
0.724139 -0.262451 -0.0456135 -0.434963 -0.900338 0.014095 0 8355711 
0.712595 -0.238695 -0.0454655 -0.991558 -0.127025 -0.0260249 0 8355711 
0.708637 -0.180449 -0.0459018 -0.995077 -0.0990722 -0.00271521 0 8355711 
-0.658603 -0.0232358 -0.0456266 0.996377 -0.0822135 0.0217512 0 8355711 
0.6696 0.00449364 -0.0453886 -0.923143 -0.384167 0.0149062 0 8355711 
0.667424 0.00951385 -0.0455687 -0.909308 -0.415646 0.0199557 0 8355711 
0.661264 0.0216146 -0.045563 -0.854449 -0.518553 0.0319431 0 8355711 
0.642057 0.0451386 -0.0451089 -0.665601 -0.744536 0.0513954 0 8355711 
0.611651 0.0613284 -0.0459177 -0.26329 -0.963414 0.0501154 0 8355711 
0.506939 0.0665463 -0.0456698 -0.0272892 -0.997799 0.0604382 0 8355711 
0.33518 0.0723734 -0.0458811 -0.0356823 -0.998 0.0521724 0 8355711 
0.277576 0.074374 -0.0451188 -0.0290658 -0.998574 0.0447832 0 8355711 
0.085844 0.0817636 -0.0452119 -0.0335992 -0.998726 0.0376393 0 8355711 
-0.627625 0.0903474 -0.0450032 0.717465 -0.695681 0.0356785 0 8355711 
-0.311233 0.097835 -0.0457437 -0.0324384 -0.998956 0.0321776 0 8355711 
-0.421642 0.104703 -0.0454114 -0.0345876 -0.998583 0.0404466 0 8355711 
-0.605097 0.10678 -0.0452615 0.435137 -0.8995 0.0394436 0 8355711 
-0.461166 0.107397 -0.0452831 -0.118795 -0.989699 0.0799003 0 8355711 
-0.601273 0.108387 -0.045957 0.386784 -0.921493 0.035338 0 8355711 
-0.547905 0.113979 -0.0452442 0.0295192 -0.993058 0.113858 0 8355711 
0.738555 -0.264786 -0.0441075 -0.0417575 -0.999069 0.0108182 0 8355711 
0.718877 -0.258081 -0.0449376 -0.801086 -0.59855 -0.000107281 0 8355711 
-0.672353 -0.211078 -0.0441847 0.911152 -0.41153 0.0211108 0 8355711 
0.687724 -0.0578992 -0.0448996 -0.971382 -0.237518 -0.00127027 0 8355711 
0.680507 -0.029207 -0.0445466 -0.962459 -0.271424 -0.00129484 0 8355711 
0.663333 0.0180372 -0.0443119 -0.877746 -0.47843 0.0258106 0 8355711 
0.624273 0.0567286 -0.0445901 -0.417244 -0.907569 0.0471798 0 8355711 
0.593305 0.0645602 -0.0444487 -0.0828624 -0.994885 0.0577712 0 8355711 
0.438294 0.0688688 -0.0448476 -0.0269416 -0.998262 0.0524176 0 8355711 
0.204532 0.0772485 -0.0443115 -0.0337856 -0.998478 0.0435874 0 8355711 
-0.634177 0.0826698 -0.0441369 0.791879 -0.609382 0.0397596 0 8355711 
0.0520063 0.0829827 -0.0449734 -0.0296397 -0.998166 0.0527776 0 8355711 
-0.00105869 0.0851388 -0.0448014 -0.0294879 -0.998712 0.0412782 0 8355711 
-0.252487 0.0950838 -0.044537 -0.0307532 -0.998993 0.0326643 0 8355711 
-0.287339 0.0965346 -0.0440854 -0.0340911 -0.998855 0.0335597 0 8355711 
-0.608878 0.104816 -0.0444364 0.505361 -0.861827 0.0431872 0 8355711 
-0.576513 0.113665 -0.0443239 0.0491736 -0.998266 0.0323505 0 8355711 
-0.570487 0.113696 -0.0445074 0.0110742 -0.999207 0.0382577 0 8355711 
0.760764 -0.265011 -0.0435829 0.0732163 -0.9973 0.00574976 0 8355711 
0.763169 -0.264822 -0.0437201 0.0849857 -0.996378 0.00286638 0 8355711 
0.71337 -0.244289 -0.0434383 -0.9818 -0.18982 -0.00614601 0 8355711 
-0.713489 -0.222346 -0.0431621 -0.116117 -0.993121 0.0151051 0 8355711 
-0.687369 -0.222231 -0.0439453 0.18257 -0.982796 0.0279428 0 8355711 
-0.718997 -0.22146 -0.0433311 -0.172416 -0.984928 0.0137451 0 8355711 
-0.717585 -0.221716 -0.043277 -0.161102 -0.986636 0.0244104 0 8355711 
-0.677667 -0.21828 -0.0435299 0.622051 -0.782897 -0.0112012 0 8355711 
0.709923 -0.197178 -0.0430109 -0.997293 -0.0721216 -0.0143369 0 8355711 
-0.669166 -0.195497 -0.0435887 0.9978 -0.061902 0.0237274 0 8355711 
-0.656212 0.00294228 -0.0436257 0.995911 -0.0879595 0.0206017 0 8355711 
0.665193 0.0144395 -0.0430476 -0.894962 -0.445683 0.0202525 0 8355711 
0.645569 0.0417028 -0.0439506 -0.709507 -0.703402 0.0427384 0 8355711 
0.632875 0.0521241 -0.0431473 -0.522068 -0.851447 0.0498285 0 8355711 
0.628556 0.0545768 -0.0439233 -0.470462 -0.881036 0.0494134 0 8355711 
-0.643208 0.0690721 -0.0431658 0.881845 -0.470789 0.0265863 0 8355711 
0.100845 0.0811544 -0.0438169 -0.0347101 -0.998654 0.0385432 0 8355711 
-0.130115 0.0905587 -0.0431354 -0.0291758 -0.998905 0.0365836 0 8355711 
-0.612614 0.102485 -0.043478 0.5586 -0.82836 0.0422444 0 8355711 
-0.40958 0.103145 -0.0430585 -0.403131 -0.915122 -0.0060398 0 8355711 
-0.589431 0.112439 -0.0435125 0.194966 -0.980263 0.0327548 0 8355711 
-0.517644 0.114766 -0.0431945 -0.0208755 -0.97952 0.200261 0 8355711 
-0.669494 -0.199311 -0.0421831 0.993611 -0.109263 0.0282666 0 8355711 
0.701437 -0.124268 -0.042828 -0.984777 -0.17378 -0.0038871 0 8355711 
-0.660929 -0.0500293 -0.0422444 0.997045 -0.0737141 0.021623 0 8355711 
0.672307 -0.00263263 -0.0423247 -0.93895 -0.343937 0.00894969 0 8355711 
-0.652877 0.0356248 -0.0421016 0.991664 -0.127522 0.0184638 0 8355711 
0.648946 0.0382546 -0.0427838 -0.72577 -0.686703 0.041187 0 8355711 
0.603639 0.0633377 -0.0421661 -0.172765 -0.983667 0.0505181 0 8355711 
0.598523 0.0641113 -0.0422998 -0.120764 -0.99144 0.0496346 0 8355711 
-0.637314 0.0785788 -0.042551 0.817764 -0.57432 0.0376592 0 8355711 
0.184291 0.0780981 -0.0426531 -0.0314569 -0.998853 0.0360977 0 8355711 
0.143381 0.0794771 -0.0425405 -0.0317954 -0.998186 0.0511331 0 8355711 
-0.154108 0.0913918 -0.0425995 -0.0375222 -0.998541 0.0388243 0 8355711 
-0.616323 0.0999301 -0.0424381 0.58913 -0.806977 0.0413886 0 8355711 
-0.396916 0.100838 -0.0425704 0.224246 -0.974325 0.0201154 0 8355711 
-0.597194 0.110159 -0.0424612 0.358149 -0.932694 0.0425565 0 8355711 
-0.494783 0.113326 -0.0422461 -0.120091 -0.974541 0.189337 0 8355711 
-0.502934 0.11421 -0.0423415 -0.0793034 -0.976184 0.201931 0 8355711 
-0.52617 0.115171 -0.0420383 0.0106272 -0.981991 0.188627 0 8355711 
0.754877 -0.265075 -0.0412684 0.0098029 -0.999876 0.0123319 0 8355711 
0.746823 -0.264956 -0.0410806 -0.0111117 -0.999869 0.011759 0 8355711 
0.763071 -0.264821 -0.0417945 0.0899116 -0.995817 0.0162832 0 8355711 
0.717972 -0.256806 -0.0411177 -0.821732 -0.569873 0.000805659 0 8355711 
0.714398 -0.248912 -0.0417738 -0.95894 -0.283491 -0.00822055 0 8355711 
0.711757 -0.228262 -0.041138 -0.996705 -0.0799152 -0.0138956 0 8355711 
-0.703243 -0.222819 -0.0411471 -0.0218372 -0.99961 0.0174057 0 8355711 
-0.692193 -0.222774 -0.0414802 0.097388 -0.994892 0.0265804 0 8355711 
-0.719198 -0.221474 -0.0415194 -0.155126 -0.987853 -0.00909562 0 8355711 
0.652139 0.0347882 -0.041605 -0.755866 -0.653279 0.0435139 0 8355711 
0.616089 0.0601514 -0.0413511 -0.314658 -0.948214 0.0433682 0 8355711 
-0.645265 0.0650883 -0.0416495 0.904447 -0.425764 0.026459 0 8355711 
0.555922 0.0654896 -0.0410739 0.00688939 -0.998889 0.0466164 0 8355711 
0.402657 0.0701938 -0.0411322 -0.0313357 -0.999356 0.0175073 0 8355711 
0.067239 0.0826539 -0.0415484 -0.029174 -0.998666 0.0426151 0 8355711 
-0.0137334 0.0856911 -0.0414457 -0.0320841 -0.998374 0.0471124 0 8355711 
-0.631517 0.0861355 -0.0412189 0.765136 -0.642936 0.0346373 0 8355711 
-0.620018 0.0972564 -0.0413548 0.616916 -0.786255 0.034903 0 8355711 
-0.402683 0.0986757 -0.0416169 -0.0631285 -0.990007 -0.126098 0 8355711 
-0.321319 0.0981484 -0.0415853 -0.0297793 -0.999071 0.0311544 0 8355711 
-0.352417 0.0997131 -0.0412821 -0.0653029 -0.99782 0.00956601 0 8355711 
-0.360505 0.100119 -0.0411979 -0.0368691 -0.999152 0.0183023 0 8355711 
-0.415325 0.104608 -0.0412933 -0.11303 -0.992497 0.0466259 0 8355711 
-0.453788 0.106816 -0.0410183 -0.0956618 -0.993785 0.056925 0 8355711 
-0.470155 0.109174 -0.0414206 -0.173534 -0.977484 0.12005 0 8355711 
-0.583359 0.113226 -0.0418357 0.103736 -0.994133 0.0306338 0 8355711 
0.730645 -0.264169 -0.0409127 -0.159547 -0.987177 0.00509102 0 8355711 
0.715667 -0.252563 -0.040471 -0.909171 -0.416307 -0.00979086 0 8355711 
-0.681297 -0.220341 -0.0405434 0.422962 -0.905638 0.0303663 0 8355711 
-0.6706 -0.205084 -0.040038 0.972827 -0.229751 0.0286583 0 8355711 
-0.66762 -0.156331 -0.040926 0.999113 -0.0313605 0.0281192 0 8355711 
0.655022 0.0312917 -0.0404063 -0.79348 -0.607291 0.0398398 0 8355711 
0.63739 0.0491715 -0.0400642 -0.590837 -0.805693 0.0420769 0 8355711 
0.620297 0.0586085 -0.040905 -0.369758 -0.928188 0.0417903 0 8355711 
-0.647081 0.0611286 -0.0401488 0.931204 -0.363817 0.0222978 0 8355711 
0.247777 0.0756851 -0.0401665 -0.0284434 -0.998728 0.0416364 0 8355711 
-0.0558976 0.0875469 -0.0405967 -0.033857 -0.998826 0.0346541 0 8355711 
-0.109745 0.089755 -0.0407555 -0.0343342 -0.998615 0.0398556 0 8355711 
-0.623679 0.0943099 -0.0401729 0.669993 -0.741708 0.0312697 0 8355711 
-0.560664 0.113983 -0.0400893 0.0350247 -0.997349 0.0637763 0 8355711 
0.761033 -0.264971 -0.039344 0.0862792 -0.996147 0.0157251 0 8355711 
0.763072 -0.264777 -0.0394726 0.102187 -0.994603 0.0179403 0 8355711 
0.720887 -0.2603 -0.039921 -0.678805 -0.734318 -0.0010626 0 8355711 
-0.719264 -0.221498 -0.0390484 -0.138095 -0.990353 0.0114139 0 8355711 
-0.685153 -0.22169 -0.0399407 0.27077 -0.962011 0.0349019 0 8355711 
0.657571 0.0277609 -0.0391861 -0.822584 -0.567661 0.0334027 0 8355711 
0.640277 0.0470033 -0.0393519 -0.622577 -0.781367 0.0431598 0 8355711 
0.366534 0.0712976 -0.0394513 -0.0300604 -0.998662 0.042075 0 8355711 
-0.0975338 0.0893691 -0.0393594 -0.0406355 -0.998469 0.0375336 0 8355711 
-0.186271 0.092906 -0.0398791 -0.0263695 -0.999055 0.0345606 0 8355711 
-0.203948 0.0935442 -0.0397508 -0.0267416 -0.998853 0.0397148 0 8355711 
-0.194557 0.0931839 -0.0390867 -0.0283912 -0.998745 0.0412539 0 8355711 
-0.600911 0.108796 -0.0397274 0.392347 -0.918891 0.0412802 0 8355711 
-0.478288 0.111053 -0.0397495 -0.182919 -0.971719 0.149344 0 8355711 
-0.48646 0.112679 -0.0390502 -0.157976 -0.972343 0.172028 0 8355711 
-0.715257 -0.222084 -0.0389464 -0.123605 -0.992155 0.0187232 0 8355711 
-0.675135 -0.21567 -0.038166 0.754056 -0.656417 0.0227051 0 8355711 
0.704428 -0.144374 -0.0387493 -0.989937 -0.141483 -0.00261572 0 8355711 
0.682653 -0.0374229 -0.0384025 -0.966186 -0.257826 -0.00326966 0 8355711 
-0.650298 0.0506846 -0.0383647 0.973322 -0.228967 0.014751 0 8355711 
0.624677 0.0567695 -0.0382257 -0.419332 -0.906869 0.0418351 0 8355711 
-0.64848 0.0572093 -0.0386747 0.953783 -0.300053 0.0163275 0 8355711 
0.57442 0.065625 -0.0389777 -0.00927736 -0.998979 0.0442214 0 8355711 
0.581543 0.0654525 -0.0380543 -0.0259303 -0.998471 0.0488139 0 8355711 
0.451963 0.0686086 -0.038211 -0.0283255 -0.998696 0.042475 0 8355711 
0.411958 0.069797 -0.0380517 -0.0245537 -0.998996 0.0374596 0 8355711 
0.420782 0.0695455 -0.0382096 -0.0221176 -0.9987 0.0459273 0 8355711 
0.223713 0.0765822 -0.0386844 -0.0348917 -0.99855 0.0409933 0 8355711 
-0.62728 0.0908579 -0.0388073 0.721879 -0.691302 0.0314999 0 8355711 
-0.398584 0.100277 -0.0380577 0.36287 -0.928885 0.0741562 0 8355711 
-0.3906 0.100744 -0.0384541 -0.172276 -0.965294 0.196285 0 8355711 
-0.394754 0.10184 -0.0387379 0.0787045 -0.991473 0.103857 0 8355711 
-0.593083 0.111656 -0.038863 0.268878 -0.962748 0.0286523 0 8355711 
-0.510865 0.115552 -0.038348 -0.041731 -0.978737 0.200829 0 8355711 
0.763139 -0.264768 -0.0373293 0.104668 -0.994435 0.0120165 0 8355711 
0.724713 -0.2627 -0.0370179 -0.38352 -0.923521 -0.00462389 0 8355711 
0.717138 -0.255524 -0.0373023 -0.8486 -0.528991 -0.00681288 0 8355711 
-0.665353 -0.110938 -0.0375665 0.99844 -0.0493771 0.0260766 0 8355711 
0.691882 -0.0762555 -0.037498 -0.975257 -0.221002 -0.00558341 0 8355711 
0.659922 0.0242108 -0.0379533 -0.843985 -0.535531 0.0299441 0 8355711 
0.612175 0.0615221 -0.0374812 -0.272489 -0.961215 0.0426029 0 8355711 
0.608022 0.0626072 -0.0377611 -0.224393 -0.973431 0.045601 0 8355711 
0.523081 0.0660934 -0.0370416 -0.0243901 -0.998731 0.044061 0 8355711 
0.480789 0.0675415 -0.0378352 -0.0284616 -0.998602 0.0445375 0 8355711 
-0.639256 0.0759708 -0.0372803 0.848765 -0.528067 0.0272809 0 8355711 
-0.0772249 0.0887936 -0.0375909 -0.034436 -0.999072 0.0258626 0 8355711 
-0.402392 0.0985375 -0.0373134 0.0253819 -0.991522 0.127432 0 8355711 
-0.406576 0.0998923 -0.0376913 -0.489605 -0.871021 0.040108 0 8355711 
-0.420114 0.104898 -0.0370044 -0.0374984 -0.99878 0.0321219 0 8355711 
-0.587073 0.112944 -0.0373645 0.155962 -0.987491 0.0231889 0 8355711 
-0.547477 0.114944 -0.0370878 0.0727597 -0.989507 0.124828 0 8355711 
-0.537999 0.115513 -0.0375671 0.0624624 -0.98514 0.159992 0 8355711 
0.719646 -0.259058 -0.0360795 -0.756718 -0.653737 0.00244743 0 8355711 
0.713806 -0.246927 -0.0360944 -0.974145 -0.225866 0.00513168 0 8355711 
0.712704 -0.239736 -0.0365627 -0.990689 -0.135289 -0.0152476 0 8355711 
-0.719218 -0.221465 -0.036929 -0.13623 -0.99028 0.0280599 0 8355711 
-0.681053 -0.220095 -0.0363794 0.449234 -0.893014 0.0267302 0 8355711 
-0.669079 -0.19087 -0.0367626 0.998576 -0.0465822 0.0259882 0 8355711 
0.706419 -0.160088 -0.0362491 -0.992021 -0.12606 -0.00190514 0 8355711 
0.698415 -0.108087 -0.0366824 -0.980753 -0.195158 -0.0059973 0 8355711 
0.667108 0.010669 -0.0363914 -0.907276 -0.420252 0.0154743 0 8355711 
0.662096 0.020644 -0.036709 -0.866463 -0.498641 0.0244878 0 8355711 
0.643492 0.0442268 -0.0362935 -0.696156 -0.717045 0.0348352 0 8355711 
0.386561 0.0706371 -0.036313 -0.0269013 -0.998606 0.0454241 0 8355711 
0.347001 0.0721648 -0.0365513 -0.0331221 -0.998661 0.0397411 0 8355711 
0.150305 0.0796446 -0.0364034 -0.0244372 -0.998488 0.0492341 0 8355711 
-0.635938 0.0807557 -0.0369963 0.808934 -0.587035 0.0318788 0 8355711 
0.116468 0.0808838 -0.0361651 -0.0292022 -0.998794 0.0394667 0 8355711 
-0.0280612 0.086486 -0.0360033 -0.0317113 -0.998635 0.0415086 0 8355711 
-0.297984 0.097105 -0.0365334 -0.043553 -0.998772 0.0236244 0 8355711 
-0.329218 0.0986346 -0.036475 -0.0195248 -0.999743 0.01153 0 8355711 
-0.34604 0.0991139 -0.0369811 -0.0645349 -0.997738 0.0187951 0 8355711 
-0.379911 0.100777 -0.0366305 -0.0272618 -0.99916 0.0306051 0 8355711 
-0.41097 0.104178 -0.0369964 -0.424993 -0.904039 0.0457624 0 8355711 
-0.608388 0.10528 -0.0360978 0.489293 -0.871477 0.0334632 0 8355711 
-0.441361 0.106055 -0.0368277 -0.0598368 -0.997491 0.037829 0 8355711 
-0.604604 0.107228 -0.0369179 0.438493 -0.897967 0.0371296 0 8355711 
-0.459657 0.107774 -0.0369389 -0.140374 -0.987385 0.0732511 0 8355711 
-0.530948 0.115963 -0.0368633 0.0419772 -0.984213 0.171938 0 8355711 
0.761303 -0.26494 -0.035102 0.0925616 -0.995605 0.0142834 0 8355711 
0.763255 -0.264737 -0.0352314 0.110692 -0.993736 0.0153562 0 8355711 
-0.692789 -0.222764 -0.0350709 0.0775571 -0.996586 0.0282909 0 8355711 
-0.688815 -0.222384 -0.0353223 0.15889 -0.987275 0.00645225 0 8355711 
-0.684899 -0.221531 -0.0357452 0.297869 -0.954457 0.0169191 0 8355711 
-0.677215 -0.21756 -0.035281 0.647356 -0.761153 0.0397086 0 8355711 
0.710803 -0.213953 -0.035131 -0.997612 -0.0670894 -0.0163944 0 8355711 
-0.672293 -0.210245 -0.0359711 0.945904 -0.323065 0.0299058 0 8355711 
-0.668679 -0.181905 -0.0357947 0.998967 -0.0370987 0.0262487 0 8355711 
0.689157 -0.0641332 -0.036 -0.972925 -0.23107 -0.00485397 0 8355711 
0.664048 0.0170552 -0.0354504 -0.88558 -0.464094 0.0190921 0 8355711 
0.646816 0.0407719 -0.0351233 -0.716395 -0.697109 0.0285921 0 8355711 
-0.65187 0.0429601 -0.0354938 0.985995 -0.166084 0.0151615 0 8355711 
0.638891 0.0482307 -0.0355011 -0.597184 -0.801307 0.0357462 0 8355711 
0.62909 0.0546764 -0.0354529 -0.470474 -0.881458 0.0410701 0 8355711 
0.495456 0.0669895 -0.0356538 -0.0220375 -0.998902 0.0413362 0 8355711 
0.440409 0.068921 -0.0353422 -0.0289677 -0.999032 0.0331187 0 8355711 
0.431313 0.0693508 -0.0352384 -0.02695 -0.998804 0.0408041 0 8355711 
-0.641671 0.0719521 -0.0357411 0.867012 -0.497583 0.0264866 0 8355711 
0.137504 0.0801002 -0.035142 -0.0330883 -0.998352 0.0468854 0 8355711 
0.0492827 0.0835943 -0.0355295 -0.020779 -0.998622 0.0481849 0 8355711 
-0.0879419 0.0889142 -0.0357341 -0.029876 -0.99919 0.0269515 0 8355711 
-0.173391 0.092626 -0.0357454 -0.0298725 -0.999153 0.0283083 0 8355711 
-0.368237 0.100372 -0.0357488 -0.0258828 -0.999634 0.00788292 0 8355711 
-0.612143 0.103109 -0.0351971 0.540721 -0.840561 0.0328346 0 8355711 
-0.42915 0.105365 -0.0358598 -0.0460692 -0.998301 0.0356664 0 8355711 
-0.578982 0.113676 -0.0357342 0.0713583 -0.99729 0.0179027 0 8355711 
-0.502618 0.11555 -0.0353836 -0.0838123 -0.97853 0.188293 0 8355711 
-0.521319 0.116426 -0.0351746 -0.000325809 -0.982124 0.188234 0 8355711 
0.733101 -0.264443 -0.0344881 -0.0855806 -0.99618 0.0173575 0 8355711 
0.729023 -0.263973 -0.0345449 -0.183341 -0.982948 0.014119 0 8355711 
-0.714986 -0.222021 -0.0347091 -0.115133 -0.993183 0.0182304 0 8355711 
-0.719098 -0.221438 -0.034814 -0.133757 -0.990827 0.0192343 0 8355711 
-0.669466 -0.196578 -0.0346624 0.996394 -0.0793543 0.030038 0 8355711 
0.702346 -0.1302 -0.0340247 -0.986671 -0.162602 -0.0063741 0 8355711 
0.679221 -0.0246355 -0.0344646 -0.960107 -0.279632 -0.000854431 0 8355711 
0.673143 -0.00488728 -0.034065 -0.94408 -0.329669 0.00563921 0 8355711 
0.633418 0.0521565 -0.0346523 -0.535369 -0.84373 0.0387301 0 8355711 
-0.644 0.0679415 -0.0342074 0.884365 -0.466049 0.0264123 0 8355711 
0.405099 0.0700162 -0.034744 -0.0206813 -0.999508 0.023574 0 8355711 
-0.0444246 0.0871512 -0.0349887 -0.0362619 -0.998717 0.03535 0 8355711 
-0.243143 0.0950254 -0.0343903 -0.0259039 -0.999077 0.0342769 0 8355711 
-0.270286 0.0961093 -0.0340194 -0.0388919 -0.998886 0.026727 0 8355711 
-0.615859 0.100614 -0.0341792 0.586029 -0.80952 0.0353276 0 8355711 
-0.360106 0.100196 -0.0348493 -0.0500348 -0.99871 -0.00866468 0 8355711 
-0.392473 0.101877 -0.0345453 -0.00768816 -0.999223 0.0386687 0 8355711 
-0.596706 0.110643 -0.0341293 0.328039 -0.94397 0.0362008 0 8355711 
-0.568333 0.114016 -0.0340271 0.0405887 -0.998483 0.0372152 0 8355711 
0.763406 -0.264712 -0.0330943 0.118239 -0.992808 0.0187654 0 8355711 
-0.670656 -0.204939 -0.0336987 0.977935 -0.207317 0.0257311 0 8355711 
-0.669929 -0.200405 -0.0332486 0.990993 -0.13192 0.0230059 0 8355711 
0.709588 -0.194155 -0.0334546 -0.997181 -0.0741299 -0.0116417 0 8355711 
0.708788 -0.182827 -0.0333173 -0.996047 -0.0885208 -0.0073963 0 8355711 
-0.668118 -0.165414 -0.0333254 0.99923 -0.0278287 0.0276491 0 8355711 
0.67578 -0.0130436 -0.0338178 -0.952692 -0.303932 0.00211085 0 8355711 
0.650192 0.0373253 -0.0339562 -0.729015 -0.683894 0.028733 0 8355711 
0.603132 0.0637951 -0.0337892 -0.169855 -0.984352 0.0469088 0 8355711 
0.541492 0.0658949 -0.0338905 -0.0354555 -0.999153 0.0208631 0 8355711 
0.590136 0.0652816 -0.0339618 -0.0629987 -0.996786 0.0494798 0 8355711 
0.465264 0.0681589 -0.033631 -0.0307774 -0.998588 0.0433036 0 8355711 
-0.630615 0.0874826 -0.0332166 0.75329 -0.656903 0.0321301 0 8355711 
-0.252838 0.0953241 -0.0339634 -0.0206991 -0.999193 0.0344201 0 8355711 
-0.619546 0.0978793 -0.0330742 0.625216 -0.779794 0.0320229 0 8355711 
-0.305664 0.0976236 -0.033842 -0.0580859 -0.998174 0.016566 0 8355711 
-0.407554 0.10116 -0.0338667 -0.539425 -0.827044 0.15817 0 8355711 
-0.600548 0.10918 -0.0334856 0.388343 -0.920547 0.0422287 0 8355711 
-0.465587 0.109177 -0.0330277 -0.189324 -0.977687 0.0910174 0 8355711 
-0.473846 0.110957 -0.0334479 -0.20752 -0.970847 0.119967 0 8355711 
-0.484159 0.113096 -0.0339411 -0.18001 -0.971905 0.151645 0 8355711 
-0.494359 0.114885 -0.0332428 -0.134228 -0.97654 0.168382 0 8355711 
0.755418 -0.265009 -0.0327797 0.0124786 -0.999795 0.0159406 0 8355711 
0.739305 -0.26474 -0.0324197 -0.0346676 -0.999297 0.0142362 0 8355711 
0.747366 -0.264914 -0.0325868 -0.00948117 -0.999858 0.0139491 0 8355711 
0.718603 -0.257797 -0.0322508 -0.783825 -0.620979 0.00189946 0 8355711 
0.714655 -0.249942 -0.0328841 -0.952277 -0.305226 -0.00209571 0 8355711 
0.713176 -0.243735 -0.0329847 -0.984089 -0.177172 -0.0133901 0 8355711 
-0.706736 -0.222653 -0.032585 -0.045813 -0.998866 0.0129942 0 8355711 
-0.699675 -0.222862 -0.0327074 0.00429594 -0.999868 0.0156887 0 8355711 
-0.71897 -0.221452 -0.0326528 -0.133315 -0.991023 0.0100663 0 8355711 
-0.680806 -0.219883 -0.0322029 0.451063 -0.892156 0.0245059 0 8355711 
-0.673625 -0.213474 -0.0326208 0.872716 -0.487469 0.0272113 0 8355711 
0.707651 -0.17077 -0.0329052 -0.993771 -0.111364 -0.00408392 0 8355711 
-0.65533 0.0140434 -0.0321347 0.995465 -0.0929822 0.0200698 0 8355711 
0.653302 0.0338506 -0.0327721 -0.77057 -0.636795 0.0267299 0 8355711 
0.620833 0.0586915 -0.0324287 -0.368183 -0.929004 0.0373359 0 8355711 
0.616623 0.0602541 -0.0328817 -0.322047 -0.945975 0.0376428 0 8355711 
-0.646058 0.0639581 -0.0326911 0.914168 -0.404776 0.0212929 0 8355711 
0.54865 0.0654323 -0.0328594 0.0115598 -0.999477 0.0301967 0 8355711 
0.564979 0.0657375 -0.0328997 -0.00199961 -0.998874 0.0474081 0 8355711 
0.293028 0.0742508 -0.0329978 -0.0283838 -0.99872 0.0418628 0 8355711 
0.0088204 0.0850551 -0.0322602 -0.0297587 -0.999165 0.0280071 0 8355711 
-0.066741 0.0880372 -0.0322845 -0.0409762 -0.998684 0.0308356 0 8355711 
