# .PCD v.7 - Point Cloud Data file format
VERSION .7
FIELDS x y z normal_x normal_y normal_z curvature principal_curvature_x principal_curvature_y principal_curvature_z pc1 pc2
SIZE 4 4 4 4 4 4 4 4 4 4 4 4
TYPE F F F F F F F F F F F F
COUNT 1 1 1 1 1 1 1 1 1 1 1 1
WIDTH 412
HEIGHT 1
VIEWPOINT 0 0 0 1 0 0 0
POINTS 412
DATA ascii
0.281516 0.0736452 -0.23555 -0.032595 -0.879301 0.475149 0.0038895 0.00480787 0.475258 0.879833 7.39326 1.34119 
0.251574 0.0763225 -0.232824 -0.0398291 -0.896381 0.441492 0.00372753 -0.0265359 0.442635 0.896309 7.29357 0.812056 
0.261577 0.0761883 -0.232515 -0.0472701 -0.898906 0.435585 0.00381781 0.00469889 0.435868 0.899998 7.24015 0.412669 
0.271586 0.0760684 -0.231506 -0.0421392 -0.910976 0.410302 0.00338911 0.00624181 0.410418 0.911876 7.24707 0.526827 
0.281598 0.0759567 -0.230097 -0.0365448 -0.918374 0.394023 0.0028302 0.017056 0.393656 0.9191 7.29153 1.42984 
0.291055 0.0552513 -0.25767 -0.0343166 -0.600455 0.798922 0.00510131 0.00175352 -0.799428 -0.60076 7.66889 1.05561 
0.291125 0.0586993 -0.25534 -0.0344814 -0.628043 0.777414 0.0075164 0.00505583 -0.777977 -0.628273 7.77376 1.34305 
0.301061 0.0551253 -0.256961 -0.0223739 -0.612968 0.789791 0.00655813 0.00577684 -0.790055 -0.613009 7.82868 1.22825 
0.301108 0.0574573 -0.255408 -0.0288348 -0.622979 0.781707 0.00707238 0.0080345 -0.782151 -0.623037 7.74667 1.33745 
0.311063 0.0549911 -0.256652 -0.0299272 -0.620093 0.783958 0.00658255 -0.00723866 -0.784154 -0.620524 7.90797 1.2932 
0.3111 0.0568151 -0.255489 -0.0299991 -0.620089 0.783957 0.0065855 0.00020757 -0.784314 -0.620364 7.74097 1.2769 
0.321058 0.0548406 -0.257142 -0.032576 -0.605073 0.795503 0.00549486 -0.0227041 -0.795272 -0.605828 7.86174 0.453274 
0.321107 0.0572724 -0.255592 -0.0264081 -0.616156 0.787181 0.00619802 -0.0241111 -0.786834 -0.616694 7.72972 0.467273 
0.291282 0.065438 -0.248578 -0.0263704 -0.748854 0.66221 0.0104454 -0.00894453 0.66259 0.748929 7.77505 1.49751 
0.301286 0.0653058 -0.248168 -0.0140752 -0.754299 0.65638 0.00985258 -0.0142601 0.656529 0.754166 7.74215 1.2823 
0.311287 0.0651696 -0.247959 -0.0253056 -0.757825 0.651967 0.00959305 0.00601768 0.652048 0.758153 7.92515 1.63699 
0.321287 0.0650313 -0.24785 -0.0284062 -0.769561 0.637941 0.00847552 0.023537 0.637506 0.770085 7.71277 0.945258 
0.291346 0.0680005 -0.24553 -0.0260673 -0.802186 0.596504 0.00647446 -0.00586736 0.596819 0.802354 8.10295 1.57117 
0.301342 0.0676581 -0.245616 -0.0188651 -0.801138 0.598182 0.00628964 -0.00511201 0.598358 0.801212 8.0898 1.35463 
0.311338 0.0673158 -0.245703 -0.0396805 -0.782917 0.620859 0.00746785 0.000112961 0.621345 0.783537 8.04923 1.65189 
0.321332 0.0668736 -0.245787 -0.0355033 -0.773237 0.633122 0.00837149 0.0215476 0.632782 0.77403 8.06295 0.850015 
0.29151 0.0732028 -0.235635 -0.0272305 -0.87379 0.485541 0.00502006 0.00629605 0.485562 0.87418 7.44311 1.61977 
0.301509 0.0730604 -0.235725 -0.0195603 -0.870033 0.492605 0.00583386 0.0072496 0.492563 0.870247 7.47979 1.26939 
0.311519 0.073718 -0.235833 -0.0271783 -0.874752 0.483808 0.00569547 0.017329 0.483502 0.875172 7.50699 1.92521 
0.32151 0.0730758 -0.235913 -0.0404832 -0.867606 0.495601 0.00667639 0.0215042 0.495136 0.868549 7.55383 1.21867 
0.291596 0.0758123 -0.230288 -0.026125 -0.919038 0.393303 0.002881 0.0138451 0.393067 0.919406 7.34984 1.47997 
0.301594 0.0756679 -0.230478 -0.0207744 -0.918717 0.394369 0.00308112 0.00297277 0.394396 0.918936 7.41754 1.12485 
0.311586 0.0755112 -0.231269 -0.0352614 -0.920451 0.389265 0.00314683 0.00273404 0.389417 0.921058 7.66016 1.77281 
0.321594 0.0753893 -0.23036 -0.039413 -0.923072 0.382603 0.0030881 0.00254221 0.382806 0.923825 7.21397 1.43256 
0.331061 0.0547084 -0.256733 -0.025026 -0.61421 0.788746 0.00617427 -0.0241343 -0.788392 -0.6147 7.84616 0.635587 
0.331094 0.0563304 -0.255666 -0.0249485 -0.614208 0.78875 0.00618304 -0.0210707 -0.788497 -0.614677 7.7177 0.63346 
0.341064 0.0545742 -0.256424 -0.035185 -0.612961 0.789329 0.00563195 -0.00857961 -0.789604 -0.613557 7.66161 0.954493 
0.341084 0.0555881 -0.255744 -0.0352606 -0.612937 0.789345 0.0056281 -0.008584 -0.789621 -0.613535 7.66161 0.954503 
0.351068 0.0544441 -0.255915 -0.0338289 -0.611244 0.790719 0.00521546 -0.00691055 -0.79101 -0.611764 7.70679 0.738989 
0.351071 0.0546461 -0.255819 -0.0338289 -0.611244 0.790719 0.00521546 -0.00691055 -0.79101 -0.611764 7.70679 0.738989 
0.352169 0.0544305 -0.255825 -0.027889 -0.608047 0.793411 0.00490955 -0.00629196 -0.793597 -0.608411 7.62743 0.653772 
0.331294 0.0649073 -0.247041 -0.030492 -0.770673 0.636501 0.00781734 0.0273601 0.635915 0.771274 7.7069 0.774144 
0.341291 0.0647609 -0.247331 -0.0286784 -0.768915 0.638708 0.00833653 0.0179296 0.638472 0.769436 7.67798 0.994016 
0.351297 0.0646348 -0.246622 -0.0295021 -0.773318 0.633332 0.008981 -0.00300124 0.633673 0.773595 7.64231 0.937698 
0.359701 0.0645275 -0.246099 -0.0412221 -0.778653 0.626099 0.00904571 -0.00803958 0.62687 0.779082 7.51987 -0.893738 
0.3613 0.0644048 -0.246111 -0.0396206 -0.778198 0.626768 0.0096123 -0.00820347 0.627493 0.778579 7.60581 0.834063 
0.361077 0.0543242 -0.254906 -0.0359981 -0.610496 0.791201 0.00517347 -0.0162277 -0.791253 -0.611274 7.7071 -0.773595 
0.331321 0.0660315 -0.245864 -0.0363489 -0.774401 0.631649 0.00776376 0.0260318 0.631119 0.775249 7.94197 0.722199 
0.341322 0.0660891 -0.245958 -0.0409637 -0.776148 0.629219 0.00813034 0.0202727 0.628972 0.777164 7.90812 0.977217 
0.35131 0.0651469 -0.246033 -0.03588 -0.776827 0.628691 0.00887356 -0.00357581 0.629191 0.777242 7.64162 0.934257 
0.361303 0.0645088 -0.245913 -0.0396042 -0.778198 0.626769 0.00961201 -0.00820236 0.627493 0.778579 7.60581 0.834032 
0.331503 0.0725335 -0.235996 -0.0461594 -0.868777 0.493048 0.00684785 0.0288727 0.492207 0.869999 7.56946 0.288462 
0.341496 0.0719912 -0.236078 -0.0403922 -0.866064 0.498299 0.00688223 0.0314263 0.497358 0.866976 7.57746 0.70407 
0.351492 0.0716489 -0.236165 -0.0285854 -0.867604 0.496433 0.00742954 0.0222514 0.495961 0.86806 7.59505 1.17701 
0.361482 0.0709069 -0.236243 -0.0262037 -0.864785 0.501459 0.00834098 0.00529807 0.501504 0.865139 7.59083 1.41801 
0.331605 0.0752755 -0.229051 -0.0409707 -0.925887 0.375573 0.00328241 0.00919081 0.375524 0.926767 7.24102 0 
0.341608 0.0751433 -0.228642 -0.043459 -0.92656 0.373627 0.00356776 0.0129722 0.373426 0.927569 7.23706 0.580462 
0.351614 0.0750173 -0.227932 -0.0460508 -0.928754 0.367825 0.0033004 0.0420146 0.366089 0.929631 6.6684 0.605805 
0.361622 0.0748953 -0.227023 -0.0441642 -0.931618 0.360746 0.0030838 0.0440323 0.358933 0.932324 6.67976 0.967355 
0.371297 0.0643562 -0.246504 -0.0364956 -0.776491 0.629071 0.0100975 -0.0110595 0.629766 0.776707 7.57626 0.99703 
0.363601 0.064472 -0.246134 -0.0251978 -0.776577 0.629518 0.00904103 -0.00424184 0.629795 0.77675 7.52742 1.07167 
0.371079 0.05419 -0.254596 -0.0368672 -0.611058 0.790727 0.00458776 -0.0201422 -0.79065 -0.611937 7.54407 0.840489 
0.381075 0.0540415 -0.254987 -0.0392739 -0.612236 0.789699 0.00384729 -0.0254041 -0.789441 -0.6133 7.56677 1.14698 
0.381291 0.0637202 -0.246284 -0.0457356 -0.778791 0.625614 0.00981424 -0.00745668 0.626519 0.779371 7.61799 1.56529 
0.375299 0.0643054 -0.24624 -0.0402545 -0.773691 0.632283 0.00885589 -0.00741176 0.63301 0.774108 7.45781 1.56644 
0.391084 0.0539237 -0.253878 -0.0416059 -0.605927 0.794431 0.0042106 -0.0267101 -0.794161 -0.60712 7.55995 1.19257 
0.391284 0.0631779 -0.246367 -0.058216 -0.772594 0.632226 0.00984167 0.00266574 0.633178 0.774002 7.66049 1.32734 
0.401088 0.0537915 -0.253469 -0.0511303 -0.609175 0.791385 0.00450541 -0.0184099 -0.791712 -0.610617 7.56092 1.74434 
0.401277 0.0626358 -0.246449 -0.0590886 -0.772555 0.632192 0.0092458 0.0183395 0.632352 0.774465 7.70793 1.7252 
0.371304 0.0646622 -0.24621 -0.0420222 -0.778862 0.625786 0.0097033 -0.0116062 0.626678 0.779192 7.57571 0.989786 
0.381306 0.0642363 -0.245495 -0.0411576 -0.781744 0.62224 0.00959952 -0.00730737 0.622987 0.782198 7.6173 1.56713 
0.391309 0.0641041 -0.245086 -0.0452535 -0.781611 0.622122 0.00963827 0.00279424 0.622659 0.782488 7.59616 1.40052 
0.401313 0.063974 -0.244577 -0.0517625 -0.77721 0.627108 0.009147 0.0171691 0.627165 0.778698 7.60679 1.81586 
0.371474 0.0702647 -0.236323 -0.0299066 -0.863234 0.503918 0.00844405 -0.0146005 0.504466 0.863308 7.58976 1.27579 
0.381473 0.0702222 -0.236416 -0.0381142 -0.860771 0.507564 0.00815122 -0.0423517 0.508868 0.859802 7.58661 0.983172 
0.391469 0.0698799 -0.236503 -0.0438026 -0.85621 0.514768 0.00798094 -0.0544285 0.516542 0.85453 7.58967 1.38085 
0.401458 0.0690377 -0.236579 -0.0545886 -0.848651 0.526129 0.00785226 -0.032753 0.528153 0.848517 7.57128 2.03248 
0.411084 0.053643 -0.25386 -0.0317435 -0.602871 0.797207 0.00464994 -0.0117887 -0.797327 -0.603432 7.58898 2.02876 
0.411266 0.0617937 -0.246526 -0.0379557 -0.768104 0.639199 0.00936149 0.0270811 0.638635 0.769033 7.71084 1.95223 
0.421091 0.053519 -0.25305 -0.0307881 -0.618826 0.784924 0.00521665 -0.0153993 -0.78491 -0.619419 7.59177 0.731384 
0.421252 0.0607516 -0.246598 -0.0297367 -0.758074 0.65149 0.00968252 0.0345868 0.650608 0.758626 7.71684 0.830512 
0.431094 0.0533869 -0.252641 -0.0379645 -0.619869 0.783787 0.0054082 -0.0229931 -0.783603 -0.620837 7.592 0.40771 
0.431249 0.0605091 -0.246687 -0.0388063 -0.732325 0.679849 0.00639731 0.0264293 0.679371 0.733319 7.72051 0.645671 
0.41132 0.063848 -0.243867 -0.0350351 -0.792457 0.608921 0.0101187 0.0236442 0.608467 0.793227 7.82458 1.98069 
0.421328 0.0637281 -0.242858 -0.0410173 -0.804403 0.592666 0.0106776 0.0310493 0.591853 0.805448 7.84736 0.897269 
0.431326 0.0635837 -0.243049 -0.0484042 -0.805255 0.590949 0.0106294 0.0232024 0.590577 0.806648 7.81638 0.586588 
0.411454 0.0686954 -0.236666 -0.0535282 -0.849525 0.524826 0.00782617 0.00498941 0.525345 0.850874 7.5881 2.03269 
0.421445 0.0680532 -0.236746 -0.0460021 -0.849385 0.525765 0.0074875 0.0308468 0.524863 0.850628 7.56722 0.936756 
0.431445 0.068011 -0.236839 -0.0497138 -0.850815 0.523108 0.00757387 0.0201302 0.522796 0.85222 7.66319 0.702988 
0.53039 0.0118921 -0.266628 -0.155478 -0.345435 0.925474 0.000942323 0.671588 0.650085 0.355471 5.37198 4.54407 
0.530564 0.0217666 -0.26303 -0.167674 -0.395524 0.903021 0.000914337 -0.217002 -0.878715 -0.425171 6.22578 4.78589 
0.520455 0.016533 -0.266629 -0.125421 -0.360226 0.924395 0.00122511 -0.139929 -0.916016 -0.375946 5.81708 4.1842 
0.52055 0.0218763 -0.264539 -0.125008 -0.384455 0.91464 0.00100249 -0.22233 -0.887573 -0.403465 6.17777 4.19647 
0.530887 0.011685 -0.266628 -0.155478 -0.345435 0.925474 0.000942323 0.844139 0.44015 0.3061 5.63912 4.6592 
0.540401 0.0115824 -0.265115 -0.209634 -0.346699 0.91425 0.00106977 0.792366 0.48761 0.366596 5.9624 4.90438 
0.540582 0.021667 -0.261021 -0.22641 -0.412243 0.882493 0.00134325 -0.477557 -0.74267 -0.469448 6.13998 5.32726 
0.550608 0.0215838 -0.258213 -0.283524 -0.413079 0.865436 0.00138609 0.622828 0.606897 0.493721 5.88108 5.648 
0.55042 0.011485 -0.263006 -0.277348 -0.360928 0.890398 0.00113316 0.821586 0.39134 0.414546 6.0711 4.96138 
0.560456 0.0114242 -0.259098 -0.344847 -0.362869 0.865682 0.000948503 0.856412 0.255893 0.448417 5.82678 5.23736 
0.560546 0.0163675 -0.256999 -0.333258 -0.387334 0.859599 0.00110749 -0.150448 -0.878189 -0.454038 5.95504 5.49648 
0.553918 0.0215614 -0.257043 -0.299268 -0.406937 0.863042 0.00154318 0.750374 0.458331 0.476309 6.14215 5.82329 
0.530747 0.0318573 -0.258636 -0.175726 -0.467441 0.866383 0.00199636 -0.130103 -0.861331 -0.491103 6.31149 4.89622 
0.520737 0.0319752 -0.259745 -0.141709 -0.468246 0.872161 0.00195436 -0.156619 -0.859349 -0.486815 6.54106 4.5937 
0.54074 0.0302482 -0.257097 -0.223102 -0.452472 0.86342 0.0022367 -0.160531 -0.856598 -0.490377 6.69839 5.3898 
0.537761 0.0317903 -0.2571 -0.206525 -0.466054 0.860314 0.00205434 -0.170719 -0.848619 -0.500701 6.5851 5.75406 
0.550653 0.0240075 -0.257062 -0.281292 -0.415258 0.865122 0.00137521 -0.357172 -0.791445 -0.496027 6.33562 5.61547 
0.520842 0.0376305 -0.257061 -0.1482 -0.505136 0.85022 0.00333749 0.000914707 -0.859783 -0.510659 7.17623 4.43626 
0.530807 0.035089 -0.257102 -0.172507 -0.496295 0.850842 0.00321575 -0.114435 -0.847845 -0.517749 6.8305 4.87347 
0.56064 0.0215149 -0.254704 -0.34492 -0.423698 0.837562 0.00146849 -0.257957 -0.815174 -0.518604 6.12387 5.40369 
0.540769 0.0317659 -0.256228 -0.231735 -0.478131 0.847166 0.00283405 -0.153791 -0.841913 -0.517235 6.70181 5.38988 
0.5508 0.0316929 -0.252919 -0.296029 -0.492986 0.818127 0.00264263 -0.0719122 -0.842583 -0.533743 6.62001 5.54446 
0.560831 0.031622 -0.249511 -0.345135 -0.493685 0.798221 0.00211354 -0.110583 -0.823167 -0.556927 6.88997 5.44836 
0.530947 0.0419827 -0.252543 -0.188059 -0.583393 0.790118 0.00429681 -0.0138738 -0.802813 -0.596069 6.96922 5.11162 
0.520932 0.0420904 -0.254152 -0.140277 -0.566369 0.812126 0.00468855 0.0419036 -0.822897 -0.566643 7.07805 4.52972 
0.540971 0.0418975 -0.249835 -0.23537 -0.584688 0.776364 0.00388753 -0.156293 -0.765639 -0.623995 7.19355 5.29456 
0.550972 0.0403067 -0.247395 -0.302803 -0.566027 0.766762 0.00290603 -0.0896474 -0.784049 -0.614191 7.1023 5.44867 
0.548094 0.0418474 -0.2474 -0.277417 -0.589993 0.758254 0.00330824 -0.0598201 -0.777093 -0.626537 7.02663 5.67209 
0.560902 0.0352659 -0.247385 -0.348255 -0.531613 0.772079 0.00274544 -0.105635 -0.796136 -0.595825 6.77663 5.29376 
0.521123 0.0511304 -0.247337 -0.148008 -0.673091 0.724598 0.00395285 0.023953 -0.734892 -0.677761 7.60872 4.3114 
0.531096 0.0491887 -0.24739 -0.173319 -0.658477 0.732372 0.00392095 0.015081 -0.745313 -0.666544 6.9657 5.26566 
0.541044 0.0454474 -0.247407 -0.235796 -0.622721 0.746068 0.00432763 -0.0453493 -0.759829 -0.648539 7.20593 5.39162 
0.551004 0.0418286 -0.246326 -0.29716 -0.588522 0.75189 0.00368479 -0.0364291 -0.7799 -0.624843 7.08346 5.52693 
0.561042 0.0417739 -0.242118 -0.33917 -0.573799 0.745465 0.00304249 0.0483377 -0.80202 -0.595338 7.08069 5.19859 
0.551227 0.052007 -0.237634 -0.293124 -0.690632 0.661139 0.00383582 0.135117 -0.714498 -0.686466 7.38827 5.36662 
0.561159 0.0470663 -0.237626 -0.341843 -0.667442 0.661563 0.00253234 0.0903156 -0.724046 -0.683813 7.06266 5.174 
0.564976 0.011405 -0.256939 -0.361179 -0.356241 0.861767 0.00103081 0.892806 0.134643 0.429848 6.09263 5.34837 
0.5705 0.0113798 -0.25439 -0.399285 -0.365447 0.840845 0.000713665 0.786786 0.334252 0.518886 5.77302 5.26168 
0.570681 0.0214664 -0.250196 -0.39981 -0.424717 0.812261 0.00135726 -0.183242 -0.831245 -0.524838 6.12379 5.6465 
0.58054 0.0113292 -0.249981 -0.454007 -0.365994 0.812358 0.00103009 0.686553 0.437431 0.580775 5.82212 5.49507 
0.580653 0.0174864 -0.247207 -0.450929 -0.404434 0.795673 0.00173033 -0.275697 -0.784747 -0.555125 6.47166 5.61095 
0.576409 0.0214465 -0.247248 -0.432774 -0.425936 0.794535 0.00163809 0.59754 0.524396 0.606593 6.40027 5.79457 
0.585767 0.0113143 -0.247129 -0.473708 -0.367518 0.800332 0.00133935 0.793914 0.215131 0.568699 6.32252 5.37985 
0.570787 0.027026 -0.24731 -0.401024 -0.451796 0.796907 0.00167936 -0.0568329 -0.855975 -0.513883 6.74651 5.46002 
0.565651 0.0315985 -0.247355 -0.369103 -0.505174 0.780104 0.00241404 -0.135503 -0.801153 -0.582918 6.78333 5.78373 
0.580729 0.0214301 -0.245088 -0.452711 -0.426624 0.782972 0.0019495 -0.135789 -0.834879 -0.533421 6.15509 5.75129 
0.590595 0.0113092 -0.244074 -0.513656 -0.361211 0.778257 0.00168795 0.754593 0.241514 0.610132 6.05003 5.42345 
0.590786 0.0214163 -0.23888 -0.522494 -0.442796 0.728651 0.00241634 0.420514 0.609594 0.671984 6.24544 5.83487 
0.600458 0.0113105 -0.237264 -0.580009 -0.380998 0.72002 0.00132521 0.495337 0.53675 0.683038 6.12217 5.1909 
0.5929 0.021417 -0.2374 -0.530464 -0.439026 0.725165 0.00244342 -0.279888 -0.716763 -0.63868 6.40532 5.84439 
0.570876 0.0315816 -0.244603 -0.385574 -0.505269 0.772034 0.00252018 0.0663172 -0.849744 -0.523007 6.65189 5.48821 
0.580927 0.0315535 -0.239095 -0.462657 -0.513326 0.722803 0.00297314 -0.0434822 -0.80119 -0.596828 6.58838 5.84942 
0.59084 0.024246 -0.237438 -0.521809 -0.454334 0.722008 0.00253501 0.357538 0.651967 0.66866 6.3203 5.86951 
0.583742 0.0315463 -0.237521 -0.472153 -0.515467 0.715098 0.0029369 0.013179 -0.81525 -0.578959 6.60789 5.75668 
0.569284 0.041751 -0.237594 -0.388692 -0.608301 0.692018 0.00342633 0.119723 -0.778054 -0.616683 7.03106 5.49564 
0.571069 0.0406257 -0.237587 -0.40132 -0.58337 0.706132 0.0023931 0.0513388 -0.784053 -0.618567 6.91169 5.48426 
0.580977 0.0340854 -0.237547 -0.461134 -0.532565 0.709739 0.00274078 -0.0371317 -0.787577 -0.615097 6.58029 5.85755 
0.600862 0.0214433 -0.230673 -0.583037 -0.437537 0.684565 0.00193273 -0.240922 -0.711588 -0.659999 6.14177 5.62654 
0.60066 0.0113117 -0.237066 -0.581323 -0.379306 0.719854 0.00128908 0.495373 0.53686 0.682925 6.12218 5.19078 
0.590987 0.0315438 -0.232687 -0.518388 -0.508046 0.687868 0.00285358 0.210412 -0.855436 -0.473239 6.34898 5.80974 
0.571093 0.0417458 -0.23661 -0.394651 -0.604961 0.691572 0.00338446 0.118531 -0.779896 -0.614583 7.03107 5.49529 
0.581146 0.0417218 -0.230902 -0.455202 -0.591538 0.665487 0.00320925 0.226481 -0.799753 -0.555969 6.83629 5.63062 
-0.228746 0.0764945 -0.260839 -0.0275677 -0.646791 0.762169 0.00869908 -0.0571351 -0.760193 -0.64718 7.71975 1.01196 
-0.228602 0.0826212 -0.254664 -0.0357607 -0.730037 0.682472 0.0101956 0.0619517 0.679975 0.730613 7.87412 0.794762 
-0.238743 0.0767369 -0.26075 -0.0321896 -0.64767 0.76124 0.00814618 -0.0479457 -0.759758 -0.648436 7.75587 0.554372 
-0.238607 0.0827513 -0.255173 -0.0382181 -0.728547 0.683929 0.0103287 0.037701 0.68289 0.729547 7.90885 0.555153 
-0.218753 0.0759524 -0.260921 -0.0165659 -0.642242 0.766323 0.00846449 -0.0661782 -0.764043 -0.641762 7.73334 0.512449 
-0.218599 0.082489 -0.254255 -0.0350527 -0.734581 0.677615 0.0102732 0.0685204 0.674669 0.734933 7.8297 0.689332 
-0.208758 0.07551 -0.261006 -0.0193264 -0.644281 0.764545 0.00850562 -0.0617989 -0.762456 -0.644082 7.76516 0.492393 
-0.208597 0.0823548 -0.253945 -0.0347266 -0.754162 0.655769 0.00897906 0.048138 0.654141 0.754839 7.92951 1.25066 
-0.198767 0.0748678 -0.261086 -0.0258346 -0.622347 0.782315 0.00668927 -0.0413741 -0.78124 -0.622858 7.77915 0.731338 
-0.198595 0.0822206 -0.253636 -0.038964 -0.759521 0.649314 0.00902554 0.0259733 0.648818 0.7605 7.72816 1.13188 
-0.238512 0.0867379 -0.250954 -0.0456514 -0.79609 0.603454 0.00502824 0.0350749 0.602434 0.797397 7.80063 0.465425 
-0.228521 0.0859956 -0.251032 -0.045307 -0.782034 0.621587 0.00681091 0.0608673 0.618909 0.783101 7.79394 0.612948 
-0.21853 0.0853534 -0.251113 -0.043945 -0.786731 0.615729 0.00653143 0.0582427 0.613259 0.787732 7.87174 1.39682 
-0.208534 0.0850111 -0.251199 -0.037984 -0.797217 0.602496 0.00585957 0.034391 0.601531 0.798109 7.95714 2.06354 
-0.198541 0.084469 -0.251282 -0.038249 -0.790958 0.610674 0.0059633 0.00150255 0.611075 0.791571 8.08091 1.67138 
-0.228346 0.0919978 -0.241154 -0.0472128 -0.866179 0.497499 0.00695843 0.0314573 0.496518 0.867456 7.39827 0.490209 
-0.238336 0.0927401 -0.241076 -0.0445273 -0.875537 0.481094 0.0057867 0.0237152 0.48051 0.876669 7.29107 0.314059 
-0.218346 0.0919556 -0.241247 -0.0554883 -0.871507 0.487233 0.00590297 0.0193491 0.486955 0.873213 7.47882 1.67829 
-0.208356 0.0912133 -0.241325 -0.0411889 -0.87323 0.485564 0.00565172 -0.0174565 0.486531 0.873489 7.47606 2.24664 
-0.198367 0.0903711 -0.241401 -0.0378224 -0.867171 0.496572 0.00609738 -0.0470581 0.497922 0.865944 7.4683 1.70185 
-0.228307 0.0929547 -0.238373 -0.0536087 -0.891508 0.449822 0.00718641 0.0141049 0.449748 0.893044 7.37058 0.677354 
-0.238325 0.0930562 -0.240282 -0.0445171 -0.875535 0.481099 0.00578312 0.0181442 0.480788 0.876649 7.12314 0.250056 
-0.218314 0.0928021 -0.238964 -0.0521094 -0.887803 0.457264 0.00559159 0.00173018 0.457805 0.889051 7.47401 1.75167 
-0.208303 0.0926863 -0.237755 -0.0345466 -0.915748 0.400266 0.00518062 -0.0371853 0.401405 0.915145 7.63091 2.33547 
-0.198288 0.0925786 -0.236146 -0.0202037 -0.922737 0.384901 0.00400524 -0.0584114 0.385411 0.920894 7.46755 1.61205 
-0.238195 0.0963431 -0.231148 -0.0451904 -0.925991 0.37483 0.004254 0.0231185 0.374144 0.927083 6.9458 1.29673 
-0.228205 0.0956008 -0.231226 -0.0532324 -0.92665 0.372137 0.00393069 -0.0273764 0.37388 0.927073 -6.89597 0.522304 
-0.218202 0.0957583 -0.231323 -0.0491903 -0.929408 0.365761 0.00344098 -0.0570564 0.368221 0.927986 6.79625 1.81625 
-0.208209 0.0952163 -0.231406 -0.0299969 -0.93051 0.365036 0.0035578 -0.0830317 0.366258 0.926802 6.75096 2.39294 
-0.198218 0.0945738 -0.231486 -0.0172067 -0.930709 0.365355 0.00372838 -0.0634626 0.365689 0.928571 6.67355 1.82897 
-0.188772 0.0744256 -0.261171 -0.0302053 -0.617552 0.78595 0.00631091 -0.0130372 -0.785998 -0.618091 7.7442 1.84718 
-0.188592 0.0820864 -0.253327 -0.0265385 -0.763618 0.645122 0.00873369 -0.011607 0.645541 0.763637 7.90492 2.42541 
-0.178782 0.0736833 -0.261249 -0.0205175 -0.618305 0.78567 0.00633241 -0.0137301 -0.785587 -0.618599 7.7399 1.99189 
-0.178592 0.0819482 -0.253218 -0.00554225 -0.778648 0.627437 0.00745664 -0.0107377 0.627457 0.778577 7.78443 2.15553 
-0.168791 0.0730412 -0.26133 -0.01375 -0.624133 0.781197 0.00724324 -0.0347324 -0.780502 -0.624188 7.67291 1.97291 
-0.168588 0.081816 -0.252808 -0.0268943 -0.775315 0.631002 0.00866855 0.0103833 0.63098 0.77573 7.58557 2.14624 
-0.158796 0.072599 -0.261414 -0.00908052 -0.62808 0.778095 0.00674759 -0.0669482 -0.776 -0.62717 7.71591 0.919359 
-0.158595 0.0816634 -0.253399 -0.0186198 -0.776005 0.630452 0.00967914 0.0472568 0.629174 0.775827 7.50472 1.59743 
-0.188547 0.0840266 -0.251366 -0.0375493 -0.785787 0.617356 0.00666183 -0.0128015 0.618119 0.78598 8.04325 2.3596 
-0.178551 0.0836845 -0.251453 -0.0207637 -0.783781 0.62069 0.00771644 -0.0111132 0.620967 0.783758 7.84172 2.20566 
-0.168559 0.0830421 -0.251533 -0.034951 -0.779211 0.625786 0.00857355 0.0121452 0.625791 0.779896 7.80711 2.08245 
-0.158552 0.0834997 -0.251636 -0.0294057 -0.780013 0.625072 0.00951094 0.0464861 0.623598 0.780362 7.78481 1.1068 
-0.18837 0.0901289 -0.24149 -0.022481 -0.868024 0.496013 0.00563057 -0.0397637 0.496522 0.867113 7.42979 2.41918 
-0.178376 0.0896867 -0.241575 0.000136973 -0.863714 0.503982 0.0054935 -0.0268872 0.503796 0.863404 7.37904 2.10495 
-0.16838 0.0893444 -0.241661 -0.0174851 -0.859002 0.511674 0.00654773 0.00724178 0.51163 0.859176 7.33907 2.26539 
-0.15838 0.0893019 -0.241754 -0.030101 -0.85868 0.511628 0.00720702 0.0188248 0.511282 0.859207 7.3596 1.39558 
-0.18829 0.0924362 -0.236237 -0.0169438 -0.919567 0.392568 0.00346391 -0.0419987 0.392932 0.918608 7.5341 2.04807 
-0.17829 0.0922959 -0.236227 -0.0199252 -0.91583 0.401072 0.00267793 0.0299651 0.400424 0.91584 7.35599 1.84025 
-0.168282 0.092174 -0.235318 -0.0234675 -0.917004 0.398188 0.00280899 0.0304077 0.397459 0.917116 7.12284 2.4869 
-0.158272 0.0920581 -0.234109 -0.0319357 -0.916467 0.398833 0.0027466 0.0448834 0.397319 0.916582 7.12593 -1.60214 
-0.188218 0.0945316 -0.231579 -0.00979659 -0.929632 0.368358 0.00327596 -0.00923535 0.368444 0.929604 6.6703 2.00063 
-0.178215 0.0946891 -0.231676 -0.0156258 -0.927648 0.373128 0.00302347 0.0442324 0.372167 0.927111 6.65806 1.81048 
-0.168226 0.0938469 -0.231752 -0.0231565 -0.923303 0.383374 0.00272567 0.0783844 0.38062 0.921404 6.67331 2.15258 
-0.158239 0.0929049 -0.231826 -0.0360756 -0.9243 0.379959 0.00270941 0.0669543 0.377116 0.923743 6.67576 -1.4788 
-0.148794 0.0727565 -0.261511 -0.0124062 -0.627242 0.778725 0.00626668 -0.0479548 -0.777516 -0.627032 7.69665 1.33646 
-0.148596 0.0815211 -0.25349 -0.0188795 -0.773094 0.63401 0.00975589 0.0538851 0.632415 0.772753 7.61397 0.655114 
-0.138806 0.0718145 -0.261585 -0.0175838 -0.621625 0.783118 0.00599354 -0.00585446 -0.783162 -0.621791 7.77718 1.70964 
-0.138589 0.0813971 -0.252681 -0.018687 -0.784678 0.619622 0.00958343 0.0243336 0.61919 0.784864 7.6287 1.8998 
-0.128808 0.0716721 -0.261676 -0.0246489 -0.62131 0.783177 0.00625675 0.0236219 -0.783558 -0.620869 7.77429 0.875641 
-0.12859 0.0812547 -0.252771 -0.00731574 -0.784681 0.619857 0.00951043 0.000459193 0.619871 0.784704 7.73553 1.73881 
-0.118808 0.0716296 -0.261769 -0.0250707 -0.618634 0.785279 0.00541556 0.0311126 -0.785628 -0.617916 7.75967 0.953108 
-0.118592 0.0811124 -0.252862 -0.0132025 -0.789486 0.613626 0.00991431 -0.0228387 0.613758 0.789164 7.65154 1.32445 
-0.148554 0.0833573 -0.251727 -0.0309909 -0.783529 0.620582 0.00951675 0.0510785 0.618828 0.783864 7.83228 0.618727 
-0.138568 0.0823152 -0.251799 -0.0214285 -0.79275 0.60917 0.00919277 0.0258041 0.608669 0.793005 7.67832 1.88331 
-0.128568 0.0822729 -0.251892 -0.00648622 -0.790578 0.612327 0.00908528 0.00046338 0.612338 0.790596 7.73432 1.73758 
-0.118571 0.0820305 -0.251981 -0.0222816 -0.797923 0.602347 0.00920788 -0.0236062 0.602749 0.797582 7.6951 1.38955 
-0.148382 0.0891595 -0.241845 -0.0353393 -0.862699 0.504481 0.00741926 0.0565097 0.502263 0.862866 7.3927 0.670759 
-0.13839 0.0885174 -0.241925 -0.0371754 -0.870091 0.491486 0.00725308 0.080489 0.487621 0.869337 7.44077 1.36191 
-0.128393 0.0882752 -0.242014 -0.0266346 -0.874515 0.484267 0.00765858 0.0791385 0.481074 0.873101 7.43645 1.55013 
-0.118397 0.0879328 -0.2421 -0.0182879 -0.870046 0.492631 0.00748067 0.0596245 0.490887 0.86918 7.46699 1.55388 
-0.148274 0.0919137 -0.2343 -0.035414 -0.919553 0.391367 0.00249434 0.0400072 0.389995 0.919948 7.11863 0.383616 
-0.138264 0.0917959 -0.233191 -0.0455052 -0.930014 0.364697 0.00217536 0.0407114 0.363045 0.930882 6.61425 0.547887 
-0.128255 0.0916759 -0.232182 -0.0409868 -0.933262 0.356852 0.00255686 0.0342459 0.35563 0.933999 6.60383 1.78697 
-0.118256 0.0915356 -0.232173 -0.0280264 -0.932596 0.359832 0.00254437 0.0374962 0.358739 0.932684 6.65857 1.58778 
-0.14824 0.0927626 -0.231917 -0.038721 -0.926633 0.373969 0.00249173 0.0491401 0.372031 0.926919 6.65223 0.345584 
-0.138247 0.0922203 -0.231999 -0.0435497 -0.930854 0.362785 0.00219438 0.0406781 0.361177 0.93161 6.61414 0.548582 
-0.128254 0.091678 -0.232082 -0.0409868 -0.933266 0.35684 0.00255931 0.0342454 0.355618 0.934004 6.60383 1.78696 
-0.108817 0.0707915 -0.261645 -0.0274925 -0.61729 0.786255 0.00562515 0.0133338 -0.786709 -0.61718 7.75948 0.669154 
-0.111119 0.0708202 -0.261824 -0.026211 -0.614732 0.788301 0.00557122 0.0133792 -0.788717 -0.614611 7.66515 0.566188 
-0.108822 0.0705875 -0.261841 -0.0274925 -0.61729 0.786255 0.00562515 0.0133338 -0.786709 -0.61718 7.75948 0.669154 
-0.0988301 0.0699453 -0.261921 -0.0263983 -0.605309 0.795552 0.00509434 0.00920017 -0.795943 -0.605301 7.67617 0.765108 
-0.0988137 0.0706594 -0.261236 -0.0211929 -0.609134 0.792784 0.00523394 0.0107555 -0.793055 -0.609055 7.48959 0.820938 
-0.0888358 0.0695032 -0.262006 -0.0178169 -0.601686 0.798534 0.00470035 0.00303201 -0.79869 -0.601735 7.66721 1.0771 
-0.0888133 0.0705211 -0.261127 -0.0208748 -0.607036 0.7944 0.00489383 -0.00483816 -0.794503 -0.607241 7.47428 0.975232 
-0.0788442 0.068861 -0.262086 -0.019499 -0.596282 0.802538 0.00405407 -0.0149133 -0.802428 -0.596562 7.56135 1.01761 
-0.0788101 0.070389 -0.260718 -0.0175758 -0.60112 0.798966 0.00436396 -0.0228767 -0.798638 -0.601376 7.35955 0.914718 
-0.108589 0.0809802 -0.252453 -0.0297401 -0.775101 0.631137 0.0104686 -0.027234 0.63181 0.774644 7.68952 0.645016 
-0.0985876 0.0807462 -0.252142 -0.0222966 -0.775424 0.631047 0.00928948 -0.0164376 0.631403 0.77528 7.64369 1.0996 
-0.100486 0.0808731 -0.252126 -0.0263056 -0.779962 0.625274 0.0089334 -0.0178063 0.625757 0.779815 7.57856 1.08688 
-0.0885933 0.080304 -0.252226 -0.0193095 -0.759007 0.650796 0.00885286 0.00631934 0.650811 0.759213 7.59935 1.49602 
-0.0785961 0.0800615 -0.252315 -0.0357055 -0.75707 0.652358 0.00839882 0.0294266 0.651694 0.757911 7.57014 1.01841 
-0.108579 0.0813883 -0.252061 -0.0141773 -0.789204 0.613967 0.00991909 -0.0267252 0.614109 0.788769 7.68648 0.647627 
-0.0985844 0.0808501 -0.251944 -0.0126624 -0.781239 0.624103 0.00910708 -0.0159447 0.624232 0.781077 7.64242 1.09906 
-0.088582 0.0807159 -0.251635 -0.0141119 -0.769916 0.637989 0.00872705 0.00634227 0.637971 0.770034 7.59744 1.496 
-0.0785825 0.0805756 -0.251625 -0.0201219 -0.768191 0.639904 0.0084213 0.0299663 0.639283 0.768388 7.56814 1.01057 
-0.108399 0.0877905 -0.242191 -0.0164346 -0.866679 0.498596 0.00733651 0.0260484 0.498123 0.866715 7.48631 1.19648 
-0.0984084 0.0870482 -0.242269 -0.0116905 -0.861223 0.508092 0.00753113 0.0237435 0.507745 0.86118 7.47461 1.36075 
-0.0884098 0.0869058 -0.24236 -0.0288178 -0.851459 0.523628 0.00804591 0.0121352 0.523509 0.851934 7.54203 1.47887 
-0.0784112 0.0867635 -0.242451 -0.0341543 -0.841618 0.538992 0.00782686 0.00484701 0.53916 0.842189 7.50812 1.50676 
-0.117456 0.0915242 -0.23218 -0.0280551 -0.93303 0.358703 0.00256791 0.0374567 0.357611 0.933119 6.50435 1.46053 
-0.108259 0.0912934 -0.232261 -0.0283929 -0.931574 0.362441 0.00280342 0.0384794 0.3613 0.931655 6.73621 0.63389 
-0.0982586 0.0912509 -0.232354 -0.0258056 -0.928882 0.369475 0.00313154 0.0144027 0.369214 0.929233 6.75887 1.00697 
-0.0882614 0.0910087 -0.232443 -0.0256152 -0.925303 0.378362 0.00336941 -0.00925864 0.37869 0.925477 6.94148 1.02324 
-0.0782642 0.0907662 -0.232531 -0.0208188 -0.920902 0.389237 0.00328694 -0.0282402 0.389708 0.920505 7.03477 0 
-0.108253 0.0914035 -0.231764 -0.0327653 -0.932832 0.358819 0.00292347 0.0382168 0.35758 0.9331 6.73595 0.626979 
-0.0982576 0.0912529 -0.232254 -0.025804 -0.928889 0.369459 0.00313713 0.0144023 0.369198 0.929239 6.75887 1.00698 
-0.0882572 0.0911147 -0.232145 -0.0274868 -0.925826 0.37695 0.003458 -0.0093503 0.377314 0.926038 6.9414 1.02327 
-0.0782558 0.0909784 -0.231936 -0.0290036 -0.927589 0.372475 0.0040884 -0.0289972 0.373256 0.927275 7.1806 0 
-0.0688499 0.0684185 -0.262171 -0.0225086 -0.597155 0.80181 0.00487949 -0.0379044 -0.800927 -0.597561 7.35198 1.09946 
-0.0688096 0.0702507 -0.260608 -0.016574 -0.607691 0.794 0.00514349 -0.0371149 -0.793188 -0.607845 7.35414 1.09928 
-0.0588513 0.0682762 -0.262262 -0.0295564 -0.598244 0.800769 0.00530347 -0.0328429 -0.800105 -0.59896 7.29556 0.695012 
-0.0588101 0.0701104 -0.260599 -0.0289261 -0.605691 0.795174 0.00561568 -0.0289177 -0.794666 -0.606357 7.36556 0.696659 
-0.0488542 0.068034 -0.26235 -0.026667 -0.60525 0.795589 0.00563897 -0.0150665 -0.795538 -0.605716 7.32079 0.751152 
-0.0488097 0.0699721 -0.26049 -0.0277118 -0.615817 0.787402 0.00600269 -0.0111208 -0.787466 -0.616258 7.39472 0.752871 
-0.0388682 0.0669919 -0.262423 -0.0254306 -0.605293 0.795597 0.00558047 0.00639067 -0.795936 -0.605347 7.49411 1.42114 
-0.0388055 0.069842 -0.259981 -0.02575 -0.618167 0.785625 0.00634463 0.0154071 -0.786038 -0.617986 7.4329 1.51166 
-0.068606 0.0793195 -0.252393 -0.0299669 -0.750613 0.660062 0.00809691 0.0356057 0.659138 0.751179 7.53259 1.02127 
-0.0586144 0.0786771 -0.252474 -0.0389206 -0.756799 0.652488 0.00753823 0.0254919 0.652019 0.757774 7.49436 0.493128 
-0.0486257 0.0778349 -0.25255 -0.0318765 -0.759538 0.649681 0.0075833 0.0272142 0.649111 0.760207 7.47991 0.434288 
-0.0386285 0.0775927 -0.252639 -0.0367791 -0.761893 0.646658 0.00789417 0.0100761 0.64678 0.76261 7.47787 1.37513 
-0.0685765 0.0804495 -0.250916 -0.0286507 -0.76556 0.642726 0.0080946 0.0350631 0.641825 0.766049 7.52984 1.02142 
-0.0585723 0.0803194 -0.250407 -0.0329677 -0.766776 0.641067 0.00749231 0.0253646 0.640567 0.767483 7.4924 0.493485 
-0.0485635 0.0801995 -0.249398 -0.0278481 -0.776272 0.629783 0.00813505 0.0154148 0.629619 0.776752 7.6635 0.833049 
-0.0385639 0.0800592 -0.249389 -0.0276921 -0.782253 0.622345 0.00841572 0.00843175 0.622379 0.78267 7.63398 1.4299 
-0.0684141 0.0865213 -0.242539 -0.0324529 -0.836476 0.547042 0.00750082 -0.00922361 0.547557 0.836717 7.54565 1.01009 
-0.0584197 0.0860788 -0.242624 -0.0395392 -0.834969 0.548875 0.00723417 -0.00456334 0.54945 0.835514 7.52 0.256503 
-0.0484338 0.0850367 -0.242696 -0.0322849 -0.836667 0.54676 0.00706697 -0.00261817 0.547114 0.837054 7.48661 0.773594 
-0.0384338 0.0849945 -0.242789 -0.044045 -0.83223 0.552678 0.00674152 0.014098 0.552642 0.8333 7.47016 1.04248 
-0.0682657 0.0906239 -0.232622 -0.026608 -0.917653 0.396492 0.00348327 -0.0283277 0.397165 0.91731 7.06828 0.478351 
-0.0582727 0.0900818 -0.232705 -0.0280045 -0.915472 0.401405 0.00362619 -0.0162972 0.401927 0.915527 7.01818 0 
-0.0482798 0.0895395 -0.232787 -0.027895 -0.914989 0.402513 0.00397529 -0.00987549 0.402902 0.91519 7.30249 0.637278 
-0.0382826 0.0892973 -0.232876 -0.0336774 -0.914843 0.402402 0.00407005 0.00121978 0.402593 0.915378 7.24829 0.600002 
-0.0682563 0.0908381 -0.231926 -0.031245 -0.924189 0.380656 0.00427829 -0.0282126 0.381506 0.923936 7.22094 0.404663 
-0.0582465 0.0907202 -0.230817 -0.0346561 -0.922718 0.383916 0.00466274 -0.0166728 0.384627 0.922922 7.18382 0 
-0.0482367 0.0906024 -0.229708 -0.0324886 -0.928891 0.368926 0.00522542 -0.0211253 0.369676 0.92892 7.16549 0.305338 
-0.0382279 0.0904825 -0.228699 -0.0369011 -0.929125 0.367921 0.00540973 -0.00665227 0.368392 0.929647 7.31159 0.324439 
-0.0288809 0.0660499 -0.262497 -0.0295643 -0.595455 0.802844 0.00582717 0.022202 -0.803388 -0.595041 7.465 1.61083 
-0.0288023 0.0697098 -0.259572 -0.0437408 -0.628696 0.77642 0.00570969 0.0294374 -0.777638 -0.628023 7.42232 1.46245 
-0.0188837 0.0658074 -0.262586 -0.0354399 -0.597115 0.801372 0.0053598 0.00642934 -0.801996 -0.597295 7.40316 1.72086 
-0.0187999 0.0695756 -0.259262 -0.0332917 -0.634026 0.772594 0.00521346 0.033238 -0.773298 -0.633171 7.41129 1.13728 
-0.00889079 0.0652653 -0.262668 -0.0381614 -0.599223 0.799672 0.00493516 -0.0060907 -0.800101 -0.599835 7.34391 1.35549 
-0.0087995 0.0694373 -0.259153 -0.0390104 -0.632749 0.773374 0.00478892 0.0237285 -0.774331 -0.632335 7.38302 0.675693 
-0.0286328 0.0772504 -0.252725 -0.0344831 -0.762967 0.645517 0.00780717 -0.00126057 0.645934 0.763392 7.4802 1.66656 
-0.0186398 0.0767081 -0.252808 -0.018779 -0.749314 0.661948 0.00709714 -0.0245894 0.662211 0.748914 7.50369 1.17582 
-0.00864268 0.0764658 -0.252896 -0.0316816 -0.7435 0.667985 0.0065299 -0.0310549 0.66873 0.742856 7.52179 0.714035 
-0.0285654 0.0799168 -0.24948 -0.0195977 -0.787633 0.615833 0.00814721 0.00242468 0.615912 0.787811 7.63811 1.67433 
-0.0185612 0.0797867 -0.24897 -0.026608 -0.78733 0.615957 0.00822801 -0.0151257 0.616422 0.787271 7.64729 1.4305 
-0.00856076 0.0796484 -0.248861 -0.0328362 -0.796785 0.60337 0.00928236 -0.0182873 0.604073 0.796719 7.66391 1.31134 
-0.028431 0.0851519 -0.242886 -0.0334686 -0.836647 0.546718 0.00706076 0.0235978 0.546211 0.837315 7.50745 1.2562 
-0.0184423 0.0843098 -0.242962 -0.031261 -0.840045 0.541615 0.00741122 0.0256789 0.541026 0.840614 7.4794 0.845181 
-0.00844935 0.0837675 -0.243045 -0.0269832 -0.842132 0.538596 0.00681855 0.026057 0.538017 0.842531 7.57302 0.958804 
-0.0282855 0.0890548 -0.232964 -0.0342305 -0.916075 0.399544 0.00388482 0.0175085 0.399167 0.916711 7.25519 1.02423 
-0.0182897 0.0887125 -0.233051 -0.0361868 -0.918373 0.394058 0.00400569 0.0354775 0.392887 0.918902 7.24589 0.350125 
-0.00829535 0.0882703 -0.233135 -0.0359525 -0.917324 0.396515 0.00412573 0.0424499 0.395011 0.917695 7.33779 0.892183 
-0.0282284 0.0903421 -0.22869 -0.0397099 -0.930049 0.365284 0.0050728 0.00189573 0.365501 0.930809 7.31802 0.481701 
-0.0182223 0.0902161 -0.227981 -0.0291951 -0.935864 0.351149 0.00495183 0.0261679 0.350463 0.936211 7.29899 0.372811 
-0.0082097 0.0901043 -0.226572 -0.040716 -0.94122 0.33533 0.00441734 0.0328106 0.334168 0.941942 6.87663 0.507424 
0.0910135 0.0580435 -0.263456 -0.0432523 -0.57603 0.816284 0.00682585 -0.0345776 -0.815696 -0.577447 7.21629 1.49736 
0.0912228 0.0680933 -0.256161 -0.0410486 -0.711031 0.701962 0.00778801 0.0174152 0.701938 0.712025 7.7891 1.58897 
0.0922119 0.0579264 -0.263465 -0.0326788 -0.574088 0.818141 0.00652722 -0.0273541 -0.817758 -0.574912 7.07228 1.32347 
0.101014 0.0578092 -0.263145 -0.0215453 -0.585227 0.810583 0.0071548 -0.023945 -0.810237 -0.585613 7.18788 1.13131 
0.101225 0.0679591 -0.255852 -0.0341452 -0.70645 0.706938 0.00758901 0.032492 0.706192 0.707274 7.82332 0.985912 
0.111224 0.0678168 -0.255943 -0.0370982 -0.705618 0.70762 0.00669103 -0.0353911 -0.706736 -0.706592 7.91285 1.13553 
0.111016 0.057673 -0.262935 -0.027564 -0.560765 0.827516 0.0065455 -0.0279308 -0.827075 -0.561397 7.21596 1.22147 
0.121226 0.0676826 -0.255633 -0.044986 -0.706142 0.70664 0.00678315 0.0200465 0.706575 0.707354 7.94769 0.835345 
0.121016 0.0575347 -0.262826 -0.0438428 -0.557395 0.829089 0.00626926 -0.0324003 -0.828657 -0.558818 7.34584 0.323343 
0.0912883 0.0711434 -0.253723 -0.0410745 -0.711031 0.70196 0.007786 0.0174153 0.701936 0.712027 7.7891 1.58894 
0.101283 0.0707012 -0.253808 -0.0341195 -0.706414 0.706976 0.00755104 0.0324934 0.706229 0.707237 7.82331 0.985889 
0.11128 0.0704588 -0.253897 -0.0371272 -0.705643 0.707595 0.00671226 -0.0353902 -0.70671 -0.706618 7.91286 1.13556 
0.121271 0.0698166 -0.253977 -0.04499 -0.706101 0.70668 0.00672565 0.0211276 0.706566 0.707332 7.96275 0.849969 
0.0914784 0.0783411 -0.24407 -0.0438793 -0.833946 0.550099 0.0105407 0.015876 0.549978 0.835028 7.44846 1.40877 
0.0939799 0.0783096 -0.243892 -0.0394667 -0.829944 0.556449 0.00989355 0.021291 0.556058 0.830871 7.30882 1.28629 
0.101473 0.0778032 -0.243952 -0.0439484 -0.818672 0.572577 0.00945356 0.0299613 0.571793 0.819851 7.50362 0.291307 
0.111466 0.0772609 -0.244035 -0.0452379 -0.821201 0.568843 0.00895353 0.0178715 0.568669 0.822372 7.57116 0.426201 
0.12146 0.0768187 -0.244119 -0.042019 -0.821742 0.568309 0.0081331 0.00923797 0.568468 0.822654 7.64686 0.630129 
0.0914816 0.0784453 -0.243872 -0.0438793 -0.833946 0.550099 0.0105407 0.015876 0.549978 0.835028 7.44846 1.40877 
0.101486 0.0782192 -0.24316 -0.0478109 -0.845398 0.531993 0.00713561 0.0276399 0.531278 0.846746 7.50057 0.289981 
0.11149 0.0780891 -0.242651 -0.0473663 -0.843127 0.535624 0.00695446 0.0159639 0.535519 0.844373 7.56877 0.424434 
0.121495 0.077959 -0.242142 -0.0495953 -0.872742 0.485656 0.00615107 -0.00130219 0.48631 0.873785 7.82 0.716249 
0.0916413 0.0833478 -0.233971 -0.0558261 -0.911169 0.408233 0.00434016 0.0073389 0.408485 0.912735 7.28944 -1.19923 
0.101634 0.0828055 -0.234053 -0.0476305 -0.912975 0.405225 0.00448785 -0.0162812 0.406342 0.913576 7.1578 1.21004 
0.111638 0.0830631 -0.234152 -0.040001 -0.915435 0.400472 0.00458815 -0.0318249 0.401757 0.915193 7.09429 1.10639 
0.121633 0.0826209 -0.234237 -0.0431324 -0.917155 0.39619 0.00432442 -0.0036851 0.396703 0.91794 7.14134 1.7777 
0.131231 0.0675545 -0.255024 -0.0410766 -0.712303 0.700669 0.00753711 0.0145017 0.700762 0.713247 8.02401 0.508746 
0.13102 0.0574046 -0.262317 -0.0360689 -0.559303 0.828178 0.00672645 -0.0358505 -0.82746 -0.560379 7.38443 0 
0.141234 0.0674224 -0.254615 -0.0436645 -0.713204 0.699595 0.007794 0.0243515 0.699295 0.714418 8.00465 0.988552 
0.141023 0.0572704 -0.262008 -0.041373 -0.558545 0.828442 0.00664378 -0.0255648 -0.828288 -0.559718 7.41928 0 
0.151237 0.0672882 -0.254306 -0.0387565 -0.709471 0.703668 0.00759305 0.0348464 0.702809 0.710525 8.00633 0.981366 
0.151027 0.0571403 -0.261499 -0.0410303 -0.544157 0.837979 0.00483799 -0.0188589 -0.838115 -0.545168 7.39475 0.056745 
0.161027 0.057002 -0.26139 -0.0435762 -0.564373 0.824369 0.00626878 -0.0232887 -0.824355 -0.565594 7.3763 1.50454 
0.161229 0.066648 -0.254286 -0.0428238 -0.70491 0.708003 0.00728906 -0.0138916 -0.708164 -0.705911 7.88703 1.55575 
0.153037 0.0672646 -0.254222 -0.0361387 -0.707963 0.705324 0.00727233 0.0259183 0.704884 0.708849 7.92878 1.52089 
0.131259 0.0688746 -0.254051 -0.0410945 -0.712303 0.700669 0.00752685 0.0205009 0.700512 0.713346 8.05855 1.01035 
0.141247 0.0680325 -0.254128 -0.0436641 -0.713193 0.699606 0.00778977 0.0233744 0.699353 0.714394 7.94386 1.03709 
0.151239 0.0673903 -0.254208 -0.0387556 -0.70946 0.70368 0.00758852 0.0348471 0.702821 0.710513 8.00632 0.9814 
0.161243 0.0671621 -0.253597 -0.0428341 -0.704873 0.708039 0.007251 -0.00867896 -0.7084 -0.705757 7.80876 1.51561 
0.131452 0.0761763 -0.2442 -0.031506 -0.82221 0.568312 0.00780309 0.0231499 0.567841 0.822813 7.65753 1.49459 
0.141444 0.0755341 -0.24428 -0.0442043 -0.82335 0.56581 0.00764136 0.047756 0.563975 0.82441 7.67919 1.45735 
0.151434 0.0747921 -0.244358 -0.047663 -0.8186 0.572383 0.00843004 0.0541071 0.570077 0.819808 7.69852 0.470502 
0.16143 0.0744497 -0.244445 -0.0425717 -0.819592 0.571364 0.00815894 0.0197069 0.571082 0.820656 7.74232 1.91347 
0.131502 0.077835 -0.241333 -0.0469449 -0.86672 0.496581 0.00555238 0.0264908 0.495874 0.86799 7.80187 1.53317 
0.141509 0.077711 -0.240524 -0.0597665 -0.878295 0.474369 0.00679066 0.0460931 0.472284 0.880241 7.91935 1.49983 
0.151519 0.0775931 -0.239415 -0.0628941 -0.893067 0.445506 0.00535717 0.0438175 0.443489 0.895208 7.86445 1.30308 
0.161516 0.0774487 -0.239606 -0.0520859 -0.887316 0.458211 0.00737629 0.00567332 0.458564 0.888643 7.97348 2.0872 
0.131623 0.0818787 -0.234315 -0.045403 -0.916008 0.398583 0.00474919 0.0422448 0.396877 0.916899 7.08868 2.17709 
0.141613 0.0811364 -0.234393 -0.0640462 -0.911983 0.405197 0.00492637 0.0653078 0.40133 0.913602 7.09238 1.5602 
0.151602 0.0802942 -0.23447 -0.0599574 -0.909065 0.412317 0.00540245 0.0402284 0.410524 0.910962 7.06745 1.52208 
0.161602 0.080252 -0.234562 -0.0556399 -0.904362 0.423123 0.0049066 0.00822899 0.42335 0.905929 7.06385 2.11037 
0.171032 0.0568719 -0.26088 -0.0449779 -0.543525 0.838187 0.00457417 -0.044901 -0.837088 -0.545222 7.32529 1.31886 
0.171222 0.0661057 -0.254369 -0.0594829 -0.693323 0.718168 0.00671712 -0.00157605 -0.719375 -0.69462 7.88633 1.90758 
0.181035 0.0567397 -0.260471 -0.0554045 -0.568304 0.820951 0.0042709 -0.0419938 -0.82016 -0.570591 7.33864 1.69252 
0.181211 0.0652636 -0.254445 -0.063291 -0.694324 0.716874 0.00650678 -0.0182142 -0.717391 -0.696432 7.69251 1.93269 
0.191038 0.0566076 -0.260062 -0.0430475 -0.573601 0.818003 0.00422551 -0.0172049 -0.818215 -0.574655 7.37092 2.70217 
0.1912 0.0644215 -0.254522 -0.0352722 -0.688614 0.724269 0.00704096 -0.0174572 -0.724185 -0.689385 7.69484 2.84468 
0.171246 0.06703 -0.253188 -0.0592077 -0.70157 0.710137 0.00673242 -0.000989863 -0.711343 -0.702844 7.95101 1.89844 
0.181251 0.0669019 -0.252579 -0.0570778 -0.706356 0.705552 0.00654016 -0.00302869 0.706823 0.707384 7.89972 1.95211 
0.191257 0.0667759 -0.251869 -0.04173 -0.707009 0.705972 0.0067804 0.0105612 0.706236 0.707897 7.65389 2.93282 
0.171421 0.0738076 -0.244525 -0.0401998 -0.819209 0.572084 0.00777847 -0.0243999 0.573181 0.819066 7.74623 1.67209 
0.181411 0.0730653 -0.244604 -0.0579643 -0.809812 0.583819 0.00791868 -0.0344793 0.586077 0.809521 7.76601 1.84535 
0.191407 0.072723 -0.24469 -0.0544384 -0.824782 0.562824 0.00576138 -0.0211866 0.564487 0.82517 7.74802 2.84397 
0.171522 0.0773227 -0.238897 -0.0414328 -0.895143 0.44385 0.00478467 -0.0449723 0.445452 0.894175 7.90051 1.29827 
0.181533 0.0772068 -0.237688 -0.0457869 -0.89283 0.44806 0.00456451 -0.0559579 0.450119 0.891214 7.48731 0.791287 
0.191539 0.0770808 -0.236979 -0.0386737 -0.891305 0.451752 0.00441517 -0.0353085 0.453027 0.890797 7.46458 2.19681 
0.171595 0.0797097 -0.234645 -0.0447115 -0.905821 0.421294 0.00431744 -0.0364897 0.422915 0.905434 7.0775 1.47724 
0.181584 0.0788675 -0.234721 -0.0395157 -0.906343 0.42069 0.00442981 -0.0582741 0.422393 0.904538 7.03074 0.867987 
0.191575 0.0782254 -0.234802 -0.034008 -0.90148 0.431482 0.0042788 -0.0478555 0.432706 0.900264 7.00161 2.23755 
0.410692 0.0334085 -0.265246 -0.0270509 -0.41889 0.907634 0.00227546 -0.0561861 -0.905894 -0.419761 6.61166 1.36166 
0.401287 0.033528 -0.26586 -0.024677 -0.417902 0.908157 0.0023222 -0.0624875 -0.906013 -0.418613 6.48722 1.2346 
0.410666 0.0319947 -0.265917 -0.0270539 -0.418906 0.907627 0.0022893 -0.0624643 -0.905476 -0.419775 6.40475 1.3287 
0.420659 0.0314524 -0.265999 -0.0251751 -0.409689 0.911878 0.00225303 -0.0723528 -0.909028 -0.410406 6.3815 0.0548213 
0.420692 0.0332682 -0.265237 -0.0252003 -0.420648 0.906874 0.0018227 -0.0602325 -0.904875 -0.421394 6.54437 0.269579 
0.430656 0.0312101 -0.266088 -0.0307514 -0.411193 0.91103 0.00190631 -0.0486851 -0.909763 -0.412264 6.42045 0.0553612 
0.430691 0.0331279 -0.265227 -0.0305144 -0.421165 0.906471 0.00169824 -0.0444916 -0.905422 -0.422175 6.60659 0.101799 
0.440629 0.0292683 -0.266142 -0.0286176 -0.395311 0.918101 0.00223231 -0.0250028 -0.917907 -0.396007 6.5606 0.348263 
0.440698 0.0330039 -0.264418 -0.029057 -0.421464 0.906379 0.00176934 -0.0324149 -0.905888 -0.422275 6.75925 0.387342 
0.400688 0.0336367 -0.265857 -0.0337576 -0.417074 0.908245 0.00243255 -0.0591723 -0.906335 -0.418396 6.60935 1.08563 
0.400882 0.0436518 -0.260262 -0.0502048 -0.525963 0.849025 0.00329548 -0.0549114 -0.847357 -0.528177 6.82839 1.1918 
0.410883 0.0435156 -0.260053 -0.0425555 -0.530145 0.846839 0.0033893 -0.0487678 -0.845494 -0.531754 6.84197 1.51104 
0.420882 0.0433732 -0.260143 -0.0325083 -0.525287 0.850304 0.00343392 -0.0304656 -0.849838 -0.526163 6.85581 0.218969 
0.430884 0.043239 -0.259834 -0.0351267 -0.524598 0.850625 0.00391505 -0.0270527 -0.850339 -0.525539 6.92565 0 
0.440886 0.0431048 -0.259525 -0.0328119 -0.529104 0.847923 0.00401141 -0.0192371 -0.847888 -0.529826 6.98597 0 
0.40101 0.0500355 -0.256192 -0.0446688 -0.587016 0.808342 0.00500193 -0.0434738 -0.807241 -0.588618 7.72449 -1.56833 
0.411019 0.050693 -0.256299 -0.0364208 -0.596669 0.801661 0.00413221 -0.0144184 -0.801796 -0.597424 7.60238 2.0715 
0.421007 0.0497508 -0.256374 -0.0335973 -0.584036 0.811032 0.00485666 -0.0147771 -0.811111 -0.584705 7.49256 0.795311 
0.430994 0.0488088 -0.256448 -0.0332168 -0.588879 0.807539 0.00531692 -0.0219697 -0.807359 -0.589651 7.49211 0.47068 
0.44099 0.0484665 -0.256534 -0.0390735 -0.582209 0.8121 0.00591046 -0.0232103 -0.811972 -0.583234 7.30146 0 
0.450611 0.0279263 -0.266208 -0.0297698 -0.379375 0.924764 0.00173282 -0.0202388 -0.924755 -0.380023 6.64054 0 
0.450701 0.0328697 -0.264109 -0.0281249 -0.421019 0.906616 0.0017019 -0.015567 -0.90668 -0.421532 6.88473 0.278803 
0.460608 0.0276841 -0.266297 -0.0328371 -0.380544 0.92418 0.00162977 -0.0246749 -0.924088 -0.381383 6.62903 0.147618 
0.4607 0.0327294 -0.2641 -0.0306621 -0.419853 0.907074 0.00164291 -0.00299075 -0.907458 -0.420132 6.88552 0.47561 
0.470603 0.0272417 -0.266381 -0.0382831 -0.380226 0.924101 0.00168291 -0.0285685 -0.923985 -0.381361 6.43537 1.31346 
0.470701 0.0325931 -0.263891 -0.0375406 -0.417656 0.907829 0.00174416 -0.0186304 -0.908019 -0.418514 6.87348 1.96024 
0.480579 0.0254998 -0.266439 -0.047104 -0.375315 0.9257 0.00111177 -0.101114 -0.920177 -0.378221 6.18536 2.29469 
0.480706 0.032465 -0.263282 -0.0464779 -0.434481 0.899481 0.00234279 -0.054191 -0.898031 -0.436581 6.88483 2.95939 
0.450887 0.0429665 -0.259416 -0.0363473 -0.536728 0.842972 0.00448628 -0.0146425 -0.843153 -0.537475 7.06798 0.325533 
0.460888 0.0428303 -0.259206 -0.0372455 -0.536837 0.842864 0.00485884 -0.0209418 -0.842844 -0.53775 7.43092 1.19762 
0.470889 0.042692 -0.259097 -0.032281 -0.524473 0.850815 0.00412668 -0.0434293 -0.849718 -0.525445 7.44175 2.11239 
0.480897 0.0425701 -0.258188 -0.0529522 -0.53186 0.845175 0.00412408 -0.0629708 -0.8429 -0.534373 7.26636 3.16092 
0.450984 0.0480243 -0.256619 -0.0279311 -0.574271 0.818188 0.0067111 -0.0255277 -0.817831 -0.574892 7.41297 0.360813 
0.460976 0.0473819 -0.256699 -0.0253661 -0.575325 0.817532 0.00685461 -0.035741 -0.81675 -0.575884 7.45705 1.25023 
0.470969 0.0468398 -0.256782 -0.0332528 -0.574686 0.817698 0.00675279 -0.0473186 -0.816328 -0.575647 7.44094 2.3157 
0.480945 0.0450979 -0.25684 -0.0525412 -0.576887 0.815132 0.00696413 -0.0546168 -0.813378 -0.579166 7.29197 3.2591 
0.510537 0.021988 -0.265948 -0.0970265 -0.379118 0.920248 0.00110081 -0.141874 -0.9099 -0.389813 6.13941 3.75081 
0.504132 0.0220649 -0.266589 -0.0892115 -0.381251 0.920157 0.000986684 -0.118079 -0.913277 -0.389849 5.6261 4.03943 
0.510507 0.0202744 -0.266613 -0.0982327 -0.369474 0.924034 0.00136111 -0.179169 -0.906786 -0.381625 5.94871 3.71411 
0.49056 0.0241578 -0.266505 -0.0620973 -0.382328 0.921938 0.00128949 -0.168843 -0.906383 -0.387249 5.69667 2.99161 
