# .PCD v.7 - Point Cloud Data file format
VERSION .7
FIELDS x y z normal_x normal_y normal_z curvature rgb
SIZE 4 4 4 4 4 4 4 4
TYPE F F F F F F F U
COUNT 1 1 1 1 1 1 1 1
WIDTH 603
HEIGHT 1
VIEWPOINT 0 0 0 1 0 0 0
POINTS 603
DATA ascii
-0.497496 -0.195049 0.307359 0.116884 -0.609041 -0.784479 0.0192768 16711680 
-0.487464 -0.192792 0.307219 0.100098 -0.588518 -0.802264 0.0161024 16711680 
-0.484357 -0.192336 0.307181 0.0755985 -0.596252 -0.79923 0.0142388 16711680 
-0.477438 -0.191035 0.307089 0.0803679 -0.562893 -0.822613 0.0176717 16711680 
0.582714 -0.191026 0.307167 -0.305583 -0.580597 -0.75467 0.0215272 16711680 
0.576766 -0.187241 0.307145 -0.349403 -0.503267 -0.790342 0.0161757 16711680 
-0.287322 -0.185094 0.307589 0.00172972 -0.485316 -0.874337 0.0161963 16711680 
-0.277322 -0.185232 0.307698 0.00927733 -0.490938 -0.871145 0.0177443 16711680 
-0.267321 -0.18537 0.307807 0.0339816 -0.467545 -0.883316 0.0172462 16711680 
-0.307324 -0.184819 0.30727 0.00550991 -0.490788 -0.871262 0.0181059 16711680 
-0.297324 -0.184957 0.30738 0.00685568 -0.493352 -0.869803 0.016697 16711680 
0.572818 -0.183585 0.307107 -0.350357 -0.423652 -0.835326 0.0158675 16711680 
0.567708 -0.177113 0.307023 -0.334741 -0.346917 -0.876126 0.0105349 16711680 
-0.187189 -0.176506 0.307176 0.0203104 -0.279454 -0.959944 0.00378194 16711680 
-0.177186 -0.176638 0.307586 0.0187871 -0.280426 -0.959692 0.00394486 16711680 
-0.167184 -0.176772 0.307895 0.0186309 -0.282295 -0.959147 0.00407324 16711680 
-0.0770486 -0.16804 0.307673 0.0148647 -0.165552 -0.986089 0.00100137 16711680 
-0.0670482 -0.168179 0.307782 0.0121907 -0.164962 -0.986225 0.000906419 16711680 
-0.0570478 -0.168317 0.307891 0.00870868 -0.164277 -0.986376 0.000864646 16711680 
-0.117052 -0.167491 0.307036 0.0132858 -0.158774 -0.987226 0.00153449 16711680 
-0.10705 -0.167626 0.307345 0.0127772 -0.16102 -0.986868 0.00145888 16711680 
-0.0970505 -0.167766 0.307354 0.0104965 -0.163983 -0.986407 0.00131602 16711680 
-0.0870491 -0.167902 0.307564 0.00960074 -0.16253 -0.986657 0.0013128 16711680 
0.563051 -0.167044 0.307061 -0.355182 -0.202462 -0.912609 0.00427946 16711680 
-0.00691166 -0.159026 0.307533 0.0169215 -0.114929 -0.99323 0.000493918 16711680 
0.00308878 -0.159164 0.307642 0.0173068 -0.119116 -0.99273 0.000479939 16711680 
0.0130911 -0.159298 0.307951 0.0158826 -0.117319 -0.992967 0.000480287 16711680 
-0.0369148 -0.158615 0.307005 0.00883257 -0.0995809 -0.99499 0.000195919 16711680 
-0.0269135 -0.158751 0.307214 0.0126485 -0.0999786 -0.994909 0.000270463 16711680 
-0.016913 -0.158889 0.307323 0.0165779 -0.116283 -0.993078 0.000691317 16711680 
0.0632292 -0.150003 0.307792 0.0112269 -0.0724238 -0.997311 0 16711680 
0.0732296 -0.150141 0.307901 0.0124004 -0.0736053 -0.99721 0 16711680 
0.00322645 -0.149173 0.307137 0.0167866 -0.073556 -0.99715 6.05664e-05 16711680 
0.013226 -0.149313 0.307146 0.0162457 -0.0734131 -0.997169 8.6651e-05 16711680 
0.0232273 -0.14945 0.307355 0.0132304 -0.0733384 -0.997219 0 16711680 
0.0332279 -0.149588 0.307464 0.0129476 -0.0728951 -0.997256 8.56802e-05 16711680 
0.0432274 -0.149728 0.307474 0.0122032 -0.0726495 -0.997283 7.66829e-05 16711680 
0.0532288 -0.149865 0.307683 0.009953 -0.0724031 -0.997326 2.7927e-05 16711680 
0.0633659 -0.140014 0.307187 0.0107628 -0.0603401 -0.99812 0 16711680 
0.0733664 -0.140152 0.307296 0.0108472 -0.0611071 -0.998072 8.65989e-05 16711680 
0.0833668 -0.140291 0.307405 0.0116091 -0.0612908 -0.998052 5.45131e-05 16711680 
0.0933682 -0.140427 0.307615 0.0161851 -0.0616585 -0.997966 0 16711680 
0.103369 -0.140565 0.307724 0.0156072 -0.0610489 -0.998013 0 16711680 
0.113369 -0.140703 0.307833 0.0146606 -0.060206 -0.998078 0 16711680 
0.0533664 -0.139874 0.307178 0.0113908 -0.0599582 -0.998136 0 16711680 
0.553484 -0.136889 0.307636 -0.281547 -0.0600427 -0.957667 0.0005308 16711680 
0.143511 -0.131121 0.307956 0.0201793 -0.0508034 -0.998505 5.28529e-05 16711680 
0.0935049 -0.130438 0.307009 0.0140874 -0.0509297 -0.998603 0 16711680 
0.103506 -0.130574 0.307219 0.017235 -0.0513033 -0.998534 0 16711680 
0.113506 -0.130715 0.307228 0.0165408 -0.0501668 -0.998604 2.96831e-05 16711680 
0.123507 -0.130851 0.307437 0.016602 -0.0492583 -0.998648 0 16711680 
0.133509 -0.130985 0.307746 0.0188367 -0.0496315 -0.99859 0 16711680 
0.553621 -0.1269 0.307031 -0.281506 -0.0636374 -0.957447 0.000477002 16711680 
0.143648 -0.121131 0.30745 0.0197869 -0.0469097 -0.998703 0 16711680 
0.15365 -0.121267 0.30766 0.0198907 -0.0484098 -0.998629 8.66152e-05 16711680 
0.163651 -0.121403 0.307869 0.0200126 -0.0494197 -0.998578 2.25587e-06 16711680 
0.123647 -0.120856 0.307132 0.0172441 -0.0442053 -0.998874 0 16711680 
0.133647 -0.120994 0.307241 0.0188035 -0.0450304 -0.998809 0 16711680 
0.153789 -0.111274 0.307254 0.0189814 -0.0491256 -0.998612 3.03094e-05 16711680 
0.163789 -0.111412 0.307364 0.0196185 -0.0495708 -0.998578 3.562e-05 16711680 
0.17379 -0.111549 0.307573 0.0190255 -0.0501612 -0.99856 0 16711680 
0.183793 -0.111683 0.307882 0.0198446 -0.0505312 -0.998525 4.00526e-06 16711680 
0.193793 -0.111821 0.307991 0.016983 -0.0502117 -0.998594 4.38131e-07 16711680 
0.213934 -0.102103 0.307904 0.0158398 -0.0559891 -0.998306 3.09911e-05 16711680 
0.173928 -0.101558 0.307068 0.0182908 -0.0562892 -0.998247 1.48325e-05 16711680 
0.183929 -0.101694 0.307277 0.0193285 -0.0572913 -0.99817 0 16711680 
0.193931 -0.10183 0.307486 0.0169138 -0.0575285 -0.998201 2.43322e-05 16711680 
0.203933 -0.101964 0.307795 0.015951 -0.0567389 -0.998262 0.000122962 16711680 
0.54405 -0.0967523 0.307205 -0.233296 -0.0962908 -0.967627 0.000479138 16711680 
0.214069 -0.0921158 0.307199 0.0142074 -0.0749973 -0.997083 9.46851e-05 16711680 
0.224073 -0.0922479 0.307608 0.0107262 -0.0735298 -0.997235 0.000141486 16711680 
0.234072 -0.0923882 0.307618 0.0111677 -0.0731628 -0.997258 8.57932e-05 16711680 
0.244073 -0.0925265 0.307727 0.0139133 -0.073301 -0.997213 0.00011111 16711680 
0.25407 -0.0926709 0.307536 0.0185516 -0.0762363 -0.996917 8.46513e-05 16711680 
0.264073 -0.0928031 0.307945 0.021239 -0.0795095 -0.996608 0.000156486 16711680 
0.204069 -0.0919775 0.30709 0.0153259 -0.0742517 -0.997122 0.000134295 16711680 
0.284144 -0.0879855 0.307859 0.0172771 -0.0985304 -0.994984 0.000143203 16711680 
0.294186 -0.0850287 0.307705 0.0190369 -0.104399 -0.994353 0.000187515 16711680 
0.284209 -0.083095 0.307359 0.0178201 -0.108119 -0.993978 0.000133847 16711680 
0.294211 -0.0832312 0.307568 0.0199508 -0.113085 -0.993385 0.000123112 16711680 
0.297911 -0.0832818 0.307634 0.0193507 -0.114217 -0.993267 0.000157684 16711680 
0.304213 -0.0833654 0.307877 0.0198849 -0.116447 -0.992998 0.000181258 16711680 
0.264208 -0.0828184 0.30714 0.0173383 -0.0995352 -0.994883 0.000207424 16711680 
0.274211 -0.0829526 0.30745 0.0182192 -0.10361 -0.994451 0.000115847 16711680 
0.304241 -0.0811723 0.307532 0.0201815 -0.125761 -0.991855 0.000238795 16711680 
0.314272 -0.0790154 0.307394 0.0115421 -0.132266 -0.991147 0.000115078 16711680 
0.324299 -0.0771582 0.307262 0.00603838 -0.134112 -0.990948 9.52349e-05 16711680 
0.334294 -0.0775006 0.307176 0.00571624 -0.134836 -0.990851 0.000184859 16711680 
0.344308 -0.0765434 0.307063 0.0125064 -0.133762 -0.990935 0.000234742 16711680 
0.354344 -0.0740844 0.307018 0.0181908 -0.14422 -0.989379 0.000143169 16711680 
0.364349 -0.0742145 0.307528 0.0194467 -0.145494 -0.989168 9.02048e-05 16711680 
0.374348 -0.0743548 0.307537 0.0157426 -0.147302 -0.988966 0.000142219 16711680 
0.384349 -0.074491 0.307746 0.013473 -0.150671 -0.988492 0.000117363 16711680 
0.39435 -0.0746293 0.307855 0.0134969 -0.152344 -0.988235 5.76146e-05 16711680 
0.41435 -0.0749079 0.307974 0.0134775 -0.152024 -0.988285 4.6657e-05 16711680 
0.494484 -0.0660397 0.307543 -0.00863351 -0.184117 -0.982866 0.000124989 16711680 
0.504483 -0.06618 0.307552 -0.0349062 -0.182211 -0.98264 0.00030444 16711680 
0.444482 -0.0653462 0.307097 0.0112815 -0.17461 -0.984573 7.7391e-05 16711680 
0.454485 -0.0654804 0.307406 0.0103246 -0.178818 -0.983828 8.70932e-05 16711680 
0.464484 -0.0656208 0.307415 0.00613183 -0.180564 -0.983544 4.3913e-05 16711680 
0.474484 -0.0657611 0.307424 0.00450415 -0.184219 -0.982875 9.77681e-05 16711680 
0.484482 -0.0659034 0.307334 0.00234139 -0.185528 -0.982636 3.47024e-05 16711680 
-0.637678 -0.207451 0.308925 -0.0482108 0.972614 0.227372 0.0219782 16711680 
-0.627678 -0.207494 0.308832 -0.0696777 0.978746 0.192879 0.0174857 16711680 
-0.61768 -0.207636 0.308741 -0.0621194 0.980448 0.186715 0.0173945 16711680 
-0.607675 -0.207379 0.308642 -0.0192061 0.987744 0.154899 0.00978162 16711680 
-0.597676 -0.207421 0.308549 -0.050353 0.98812 0.145204 0.00140283 16711680 
-0.587671 -0.207164 0.30845 -0.0712761 0.982302 0.173213 0.00204592 16711680 
-0.577664 -0.206706 0.308347 -0.0783105 0.977843 0.194141 0.00184958 16711680 
-0.567654 -0.206049 0.30824 -0.129388 0.956993 0.259661 0.00879452 16711680 
-0.557642 -0.205192 0.308129 -0.149047 0.934896 0.32211 0.0117254 16711680 
-0.547628 -0.204234 0.308016 0.144825 -0.915009 -0.376542 0.0122821 16711680 
-0.527582 -0.201699 0.308777 0.154115 -0.828609 -0.538197 0.0227954 16711680 
0.592634 -0.197444 0.308305 -0.294671 -0.730517 -0.616046 0.0204973 16711680 
-0.477449 -0.192414 0.308118 0.0867495 -0.602091 -0.793701 0.0150788 16711680 
0.572784 -0.187148 0.308981 -0.321398 -0.507498 -0.799468 0.0169637 16711680 
-0.257319 -0.185504 0.308117 0.0326218 -0.464748 -0.884842 0.0185973 16711680 
-0.247317 -0.185639 0.308426 0.0226884 -0.440187 -0.89762 0.01509 16711680 
-0.237313 -0.185771 0.308835 -0.0130371 -0.449473 -0.893199 0.0224677 16711680 
-0.147181 -0.177045 0.308313 0.0137318 -0.304146 -0.952527 0.00692398 16711680 
-0.137182 -0.177185 0.308323 0.0138412 -0.305113 -0.952216 0.00701503 16711680 
-0.127181 -0.177323 0.308432 0.00219067 -0.301712 -0.953396 0.00724247 16711680 
-0.11718 -0.17746 0.308641 -0.00293253 -0.297815 -0.954619 0.00761935 16711680 
-0.107178 -0.177596 0.30885 -0.0105126 -0.288116 -0.957538 0.00755406 16711680 
-0.0971778 -0.177734 0.308959 0.0129199 -0.313559 -0.949481 0.01083 16711680 
-0.157183 -0.176911 0.308004 0.0160443 -0.284528 -0.958533 0.00424138 16711680 
-0.00704464 -0.169006 0.308538 0.0119688 -0.157178 -0.987498 0.000511621 16711680 
0.00295675 -0.169142 0.308747 0.0120034 -0.155206 -0.987809 0.000771306 16711680 
0.0129581 -0.169279 0.308956 0.0108341 -0.15517 -0.987828 0.000851049 16711680 
-0.0470473 -0.168455 0.308001 0.0075251 -0.161556 -0.986835 0.000718835 16711680 
-0.0370469 -0.168593 0.30811 0.00546209 -0.163383 -0.986548 0.000653119 16711680 
-0.0270464 -0.168732 0.308219 0.0101974 -0.161359 -0.986843 0.000679759 16711680 
-0.0170451 -0.168868 0.308428 0.0112687 -0.159131 -0.987193 0.000687598 16711680 
0.0730938 -0.160128 0.308607 0.0123316 -0.10672 -0.994213 0.000207536 16711680 
0.0830952 -0.160264 0.308816 0.0117727 -0.104982 -0.994404 0.000178241 16711680 
0.0230915 -0.159436 0.30806 0.00955377 -0.120489 -0.992669 0.000397366 16711680 
0.033093 -0.159573 0.30827 0.00666615 -0.118262 -0.99296 0.000403504 16711680 
0.0430925 -0.159713 0.308279 0.00761995 -0.114898 -0.993348 0.00036781 16711680 
0.053093 -0.159851 0.308388 0.00745629 -0.112749 -0.993596 0.000328086 16711680 
0.0630953 -0.159985 0.308697 0.00915353 -0.109385 -0.993957 0.000339565 16711680 
0.0832301 -0.150279 0.308011 0.0123933 -0.0741789 -0.997168 0 16711680 
0.0932314 -0.150416 0.30822 0.0160234 -0.0815876 -0.996537 9.332e-05 16711680 
0.103232 -0.150554 0.308329 0.0133927 -0.0808391 -0.996637 4.78172e-05 16711680 
0.113233 -0.15069 0.308538 0.0110488 -0.0808714 -0.996663 6.33311e-05 16711680 
0.123234 -0.150828 0.308648 0.0160159 -0.0761101 -0.996971 6.87519e-06 16711680 
0.133234 -0.150967 0.308757 0.0189914 -0.073875 -0.997087 0 16711680 
0.553348 -0.146877 0.308241 -0.2798 -0.0708137 -0.957443 0.000521182 16711680 
0.143372 -0.141114 0.308361 0.0237365 -0.0613447 -0.997834 5.99755e-05 16711680 
0.153377 -0.141244 0.30887 0.0232959 -0.062882 -0.997749 5.10347e-05 16711680 
0.163377 -0.141383 0.308979 0.0188578 -0.0630278 -0.997834 5.78238e-05 16711680 
0.12337 -0.14084 0.308042 0.0160642 -0.0591357 -0.998121 0 16711680 
0.133371 -0.140978 0.308152 0.0177277 -0.059724 -0.998058 0 16711680 
0.153512 -0.131258 0.308165 0.0211623 -0.0522048 -0.998412 3.76075e-05 16711680 
0.163514 -0.131394 0.308374 0.0208511 -0.0535038 -0.99835 0 16711680 
0.173515 -0.13153 0.308583 0.0184442 -0.0542701 -0.998356 2.2647e-05 16711680 
0.183516 -0.131666 0.308792 0.0185643 -0.0535389 -0.998393 9.30927e-05 16711680 
0.213656 -0.122088 0.308715 0.017383 -0.0491276 -0.998641 2.87337e-05 16711680 
0.223657 -0.122227 0.308824 0.0180059 -0.0521367 -0.998478 8.10091e-05 16711680 
0.173653 -0.121539 0.308078 0.0182127 -0.0505959 -0.998553 1.74403e-05 16711680 
0.183655 -0.121673 0.308387 0.0198538 -0.0501508 -0.998544 3.22473e-05 16711680 
0.193654 -0.121816 0.308297 0.0164317 -0.0490916 -0.998659 1.37033e-05 16711680 
0.203657 -0.121948 0.308706 0.0150833 -0.0486686 -0.998701 3.28907e-05 16711680 
0.233726 -0.117564 0.308935 0.0181424 -0.0538179 -0.998386 7.14321e-05 16711680 
0.213795 -0.112096 0.30831 0.0162926 -0.0485448 -0.998688 0 16711680 
0.223795 -0.112234 0.308419 0.0156407 -0.0502211 -0.998616 2.39039e-05 16711680 
0.233797 -0.11237 0.308628 0.0152745 -0.0533332 -0.99846 0 16711680 
0.243599 -0.112405 0.308737 0.0155143 -0.056384 -0.998289 7.90543e-05 16711680 
0.253799 -0.112645 0.308947 0.017328 -0.0600808 -0.998043 1.5894e-05 16711680 
0.203795 -0.111955 0.3083 0.0155673 -0.0483341 -0.99871 0 16711680 
0.543916 -0.106737 0.30801 -0.229822 -0.0819559 -0.969776 0.000372142 16711680 
0.253897 -0.105453 0.308499 0.0179429 -0.0627749 -0.997866 2.18358e-06 16711680 
0.28394 -0.103065 0.308969 0.0186276 -0.0726253 -0.997185 0 16711680 
0.223936 -0.102237 0.308214 0.0132746 -0.0577961 -0.99824 5.88188e-05 16711680 
0.233935 -0.102377 0.308223 0.0130665 -0.0586009 -0.998196 1.71587e-05 16711680 
0.243933 -0.102522 0.308032 0.0142585 -0.0606719 -0.998056 5.62258e-05 16711680 
0.253935 -0.102656 0.308341 0.0182441 -0.0640457 -0.99778 0 16711680 
0.256636 -0.102692 0.308417 0.0198251 -0.0647705 -0.997703 1.88266e-05 16711680 
0.263938 -0.10279 0.308651 0.0210466 -0.0670052 -0.997531 5.06158e-05 16711680 
0.27394 -0.102924 0.30896 0.0200371 -0.0691939 -0.997402 3.54107e-05 16711680 
0.264015 -0.0970978 0.308234 0.0216568 -0.0728876 -0.997105 9.0646e-05 16711680 
0.284077 -0.0930735 0.308464 0.0174232 -0.0868038 -0.996073 6.36867e-05 16711680 
0.294078 -0.0932118 0.308573 0.0200996 -0.0918596 -0.995569 0.000156853 16711680 
0.304079 -0.093348 0.308782 0.0210162 -0.0947666 -0.995278 0.000186515 16711680 
0.273074 -0.0929271 0.308064 0.0173228 -0.0830483 -0.996395 0.000112639 16711680 
0.274078 -0.0926415 0.308048 0.018809 -0.0854313 -0.996167 8.68858e-05 16711680 
0.534202 -0.0865927 0.308091 -0.177695 -0.121033 -0.976614 0.000789632 16711680 
0.354215 -0.0840568 0.308423 0.0192531 -0.126779 -0.991744 6.55466e-05 16711680 
0.364217 -0.084193 0.308633 0.0209038 -0.127158 -0.991662 5.53678e-05 16711680 
0.374218 -0.0843292 0.308842 0.0176431 -0.128858 -0.991506 6.42349e-05 16711680 
0.314214 -0.0835016 0.308086 0.01351 -0.120684 -0.992599 0.000167656 16711680 
0.324215 -0.0836399 0.308196 0.00668313 -0.124841 -0.992154 7.33013e-05 16711680 
0.334213 -0.0837823 0.308105 0.0054589 -0.126289 -0.991978 6.68652e-05 16711680 
0.344214 -0.0839205 0.308214 0.0126661 -0.125217 -0.992049 0.000123023 16711680 
0.514352 -0.0762947 0.308866 -0.074032 -0.16117 -0.984146 0.00044736 16711680 
0.524344 -0.0764514 0.308076 -0.11935 -0.15087 -0.981323 0.000593584 16711680 
0.424352 -0.0750421 0.308283 0.013823 -0.15064 -0.988492 5.94615e-05 16711680 
0.434355 -0.0751743 0.308692 0.016199 -0.151358 -0.988346 9.59308e-05 16711680 
0.444355 -0.0753146 0.308702 0.015592 -0.155022 -0.987788 0.00013886 16711680 
0.404351 -0.0747655 0.308065 0.0134785 -0.1517 -0.988335 5.98305e-05 16711680 
-0.69079 -0.229393 0.309869 0.588133 -0.204289 -0.782538 0.0178168 16711680 
-0.690349 -0.2194 0.309661 0.523564 -0.406999 -0.748487 0.0337273 16711680 
-0.687781 -0.214537 0.309538 0.488015 -0.476599 -0.731228 0.0454667 16711680 
-0.677611 -0.209584 0.309275 0.310819 -0.789726 -0.528889 0.0518505 16711680 
-0.667694 -0.208424 0.309225 0.215228 -0.862786 -0.457468 0.0533041 16711680 
-0.657682 -0.207667 0.309116 -0.116314 0.940994 0.317807 0.0439472 16711680 
-0.647678 -0.207409 0.309017 -0.0444686 0.97328 0.225275 0.0198773 16711680 
-0.467441 -0.192536 0.309027 0.0696907 -0.589811 -0.804529 0.0133829 16711680 
-0.457434 -0.19266 0.309836 0.0451703 -0.595444 -0.802126 0.01384 16711680 
-0.21731 -0.186041 0.309353 0.0214885 -0.429548 -0.902789 0.0149368 16711680 
-0.207306 -0.186173 0.309763 0.0268119 -0.437913 -0.898617 0.0147356 16711680 
-0.227312 -0.185907 0.309044 -0.00395492 -0.420239 -0.907405 0.013878 16711680 
-0.0771751 -0.178007 0.309378 0.000368898 -0.341545 -0.939866 0.0138569 16711680 
-0.0671756 -0.178147 0.309387 0.00298086 -0.345173 -0.938534 0.0140687 16711680 
-0.0571742 -0.178283 0.309596 -0.0015252 -0.347637 -0.937628 0.0141474 16711680 
-0.0471737 -0.178421 0.309706 -0.013512 -0.347924 -0.937425 0.0133953 16711680 
-0.0371743 -0.178562 0.309715 -0.013336 -0.350619 -0.936423 0.013963 16711680 
-0.0271738 -0.1787 0.309824 -0.00788743 -0.336452 -0.941668 0.0150408 16711680 
-0.0871764 -0.17787 0.309169 0.00784057 -0.33065 -0.943721 0.0132074 16711680 
0.562928 -0.177002 0.309166 -0.331415 -0.333435 -0.882601 0.00964831 16711680 
0.0729609 -0.170108 0.309612 0.0120184 -0.168049 -0.985705 0.00194494 16711680 
0.0829622 -0.170245 0.309821 0.0121323 -0.169934 -0.985381 0.00209952 16711680 
0.0229595 -0.169415 0.309165 0.009234 -0.156212 -0.98768 0.00109276 16711680 
0.032961 -0.169551 0.309375 0.00527271 -0.160449 -0.98703 0.00118647 16711680 
0.0429605 -0.169691 0.309384 0.0048368 -0.161873 -0.9868 0.00141409 16711680 
0.0529609 -0.16983 0.309493 0.0062101 -0.165489 -0.986192 0.00175583 16711680 
0.0629614 -0.169968 0.309602 0.00761416 -0.166846 -0.985954 0.00192239 16711680 
0.143101 -0.161088 0.309771 0.0256625 -0.104734 -0.994169 0.000354391 16711680 
0.0930966 -0.1604 0.309025 0.0131009 -0.105164 -0.994369 0.000289941 16711680 
0.103096 -0.160541 0.309034 0.0113362 -0.104508 -0.994459 0.000166673 16711680 
0.113099 -0.160673 0.309443 0.0111519 -0.103395 -0.994578 0.000326875 16711680 
0.123098 -0.160815 0.309353 0.0139237 -0.102946 -0.99459 0.000302169 16711680 
0.133099 -0.160951 0.309562 0.0185608 -0.102134 -0.994597 0.000305612 16711680 
0.553214 -0.15686 0.309146 -0.280941 -0.0995929 -0.954544 0.000886684 16711680 
0.143236 -0.151101 0.309066 0.0242695 -0.0728274 -0.997049 0 16711680 
0.153238 -0.151237 0.309275 0.0244208 -0.0718346 -0.997118 0.000120866 16711680 
0.163239 -0.151373 0.309484 0.0189489 -0.0719289 -0.99723 5.03126e-05 16711680 
0.173242 -0.151508 0.309794 0.0172534 -0.072136 -0.997246 0 16711680 
0.183241 -0.151648 0.309803 0.0187202 -0.0744362 -0.99705 0.000114246 16711680 
0.193269 -0.149885 0.309973 0.0206117 -0.0747784 -0.996987 0.000175407 16711680 
0.203376 -0.142329 0.309724 0.0207189 -0.0712795 -0.997241 0.000161375 16711680 
0.213381 -0.14207 0.309725 0.0230965 -0.072128 -0.997128 0.000182712 16711680 
0.173377 -0.141521 0.309088 0.0164146 -0.0633677 -0.997855 5.83454e-05 16711680 
0.183379 -0.141657 0.309298 0.016829 -0.0638872 -0.997815 0.000161373 16711680 
0.19338 -0.141793 0.309507 0.0179811 -0.0655951 -0.997684 8.64853e-05 16711680 
0.203382 -0.14193 0.309716 0.0205848 -0.0687215 -0.997424 0.000171576 16711680 
0.204481 -0.141945 0.309706 0.0201129 -0.0686499 -0.997438 0.000182586 16711680 
0.213417 -0.139473 0.309572 0.0209291 -0.0662632 -0.997583 0.000190919 16711680 
0.213519 -0.132079 0.30922 0.0183813 -0.0554346 -0.998293 5.07282e-05 16711680 
0.22002 -0.132168 0.309361 0.0203147 -0.0559169 -0.998229 6.12409e-05 16711680 
0.22352 -0.132215 0.309429 0.0210453 -0.0578514 -0.998103 0.000179496 16711680 
0.233523 -0.132347 0.309839 0.0250934 -0.0615188 -0.99779 0 16711680 
0.193518 -0.131803 0.309002 0.0154818 -0.0526081 -0.998495 0 16711680 
0.203519 -0.131939 0.309211 0.0151516 -0.0531098 -0.998474 3.4152e-05 16711680 
0.223564 -0.129018 0.309264 0.0196414 -0.0542583 -0.998334 0.00021051 16711680 
0.543646 -0.126707 0.309621 -0.232734 -0.0653989 -0.970339 0.000661958 16711680 
0.229259 -0.1223 0.309073 0.0180685 -0.0532361 -0.998419 2.72602e-05 16711680 
0.23366 -0.122359 0.309233 0.0220206 -0.0564273 -0.998164 4.0567e-05 16711680 
0.243661 -0.122495 0.309443 0.0202726 -0.058717 -0.998069 3.25488e-06 16711680 
0.253661 -0.122635 0.309452 0.0195703 -0.0598545 -0.998015 2.86917e-05 16711680 
0.263663 -0.12277 0.309761 0.022155 -0.0610386 -0.99789 4.85449e-05 16711680 
0.273665 -0.122906 0.30997 0.0222749 -0.0613377 -0.997869 2.82343e-05 16711680 
0.543783 -0.116718 0.309016 -0.228141 -0.0724097 -0.970932 0.00054797 16711680 
0.283806 -0.113047 0.309874 0.02247 -0.0643965 -0.997671 0 16711680 
0.293805 -0.113187 0.309884 0.0284719 -0.0647713 -0.997494 3.1131e-05 16711680 
0.263802 -0.112777 0.309356 0.0212427 -0.0614434 -0.997885 5.93002e-05 16711680 
0.273804 -0.112911 0.309665 0.0223276 -0.0621571 -0.997817 5.39336e-06 16711680 
0.293941 -0.103201 0.309178 0.0236612 -0.0746962 -0.996926 0.000159078 16711680 
0.303945 -0.103331 0.309687 0.0251854 -0.0778317 -0.996648 0.000114894 16711680 
0.534069 -0.0965733 0.309096 -0.184106 -0.0936922 -0.978431 0.000465106 16711680 
0.354083 -0.0940353 0.309528 0.0208449 -0.110697 -0.993636 8.41777e-05 16711680 
0.364085 -0.0941695 0.309838 0.0236015 -0.112104 -0.993416 0.000138372 16711680 
0.314083 -0.0934781 0.309291 0.0159823 -0.0986455 -0.994994 0.000273253 16711680 
0.324084 -0.0936164 0.309401 0.00919938 -0.103906 -0.994545 0.000194728 16711680 
0.334083 -0.0937567 0.30941 0.00594425 -0.107272 -0.994212 0.000125317 16711680 
0.344083 -0.093897 0.309419 0.013077 -0.108245 -0.994038 0.00018152 16711680 
0.524216 -0.0864218 0.309581 -0.126774 -0.126189 -0.983872 0.000595204 16711680 
0.424224 -0.0850125 0.309788 0.014233 -0.135009 -0.990742 0.000174065 16711680 
0.434225 -0.0851487 0.309997 0.0203638 -0.135623 -0.990551 0.000110192 16711680 
0.384219 -0.0844655 0.309051 0.0141706 -0.132414 -0.991093 0.000109303 16711680 
0.394221 -0.0846017 0.30926 0.012082 -0.13503 -0.990768 2.79407e-05 16711680 
0.404223 -0.0847359 0.30957 0.0120263 -0.135418 -0.990716 9.33944e-05 16711680 
0.414223 -0.0848762 0.309579 0.0138316 -0.135604 -0.990667 0.000178951 16711680 
0.504357 -0.0761463 0.309257 -0.0328317 -0.167924 -0.985253 0.000246111 16711680 
0.454357 -0.0754488 0.309011 0.0131972 -0.160373 -0.986968 0.000143903 16711680 
0.46436 -0.075583 0.30932 0.00908835 -0.165385 -0.986187 0.000206931 16711680 
0.474358 -0.0757253 0.309229 0.00656147 -0.170835 -0.985278 0.000131416 16711680 
0.484358 -0.0758656 0.309238 0.00386673 -0.171658 -0.985149 0.000133985 16711680 
0.49436 -0.0759998 0.309548 -0.0082629 -0.171303 -0.985184 8.60054e-05 16711680 
-0.69093 -0.23939 0.310075 0.606989 -0.0187581 -0.794489 0.00270715 16711680 
-0.427428 -0.193065 0.310664 0.00976972 -0.594712 -0.803879 0.0122409 16711680 
-0.44743 -0.192792 0.310245 0.0225758 -0.593044 -0.804854 0.0130915 16711680 
-0.437426 -0.192922 0.310754 0.0147647 -0.593164 -0.804946 0.0126747 16711680 
-0.197304 -0.186307 0.310072 0.0307358 -0.424379 -0.904963 0.0124815 16711680 
-0.187305 -0.186448 0.310081 0.0317245 -0.412318 -0.910488 0.0114073 16711680 
-0.177301 -0.18658 0.31049 0.0154076 -0.424196 -0.905439 0.0120463 16711680 
-0.1673 -0.186716 0.310699 0.0148534 -0.422358 -0.906308 0.0115875 16711680 
-0.1573 -0.186857 0.310709 0.0121003 -0.421227 -0.906875 0.0108269 16711680 
0.00282938 -0.179111 0.310352 0.0460093 -0.318747 -0.946723 0.0115392 16711680 
0.0128317 -0.179245 0.310661 0.0357742 -0.317684 -0.947522 0.0119564 16711680 
0.0228321 -0.179383 0.31077 0.0320836 -0.324036 -0.945501 0.0120748 16711680 
0.0328327 -0.179522 0.31088 0.0226764 -0.319604 -0.94728 0.0109209 16711680 
0.0428331 -0.17966 0.310989 0.0166303 -0.306154 -0.951837 0.0106478 16711680 
-0.0171724 -0.178836 0.310033 0.0105947 -0.324676 -0.945766 0.0144821 16711680 
-0.00717107 -0.178973 0.310243 0.0286236 -0.310529 -0.950133 0.0130211 16711680 
0.142962 -0.171517 0.310835 0.0333519 -0.228023 -0.973084 0.00371384 16711680 
0.146468 -0.171116 0.310844 0.0336639 -0.221911 -0.974486 0.00292866 16711680 
0.0929645 -0.170379 0.31013 0.0158806 -0.175065 -0.984429 0.00228055 16711680 
0.102964 -0.170519 0.310139 0.0165337 -0.200726 -0.979508 0.00419001 16711680 
0.112964 -0.170657 0.310248 0.016347 -0.202028 -0.979243 0.00379419 16711680 
0.122966 -0.170794 0.310458 0.0156405 -0.205178 -0.9786 0.00382052 16711680 
0.132965 -0.170934 0.310467 0.0189966 -0.207805 -0.977986 0.00357742 16711680 
0.153008 -0.168309 0.310726 0.03336 -0.155351 -0.987296 0.00225958 16711680 
0.553082 -0.166839 0.310251 -0.279364 -0.19981 -0.939166 0.00426676 16711680 
0.153103 -0.161222 0.31008 0.0282898 -0.10772 -0.993779 0.00052388 16711680 
0.163105 -0.161454 0.310492 0.0232317 -0.110476 -0.993607 0.000486233 16711680 
0.164006 -0.161367 0.310481 0.020766 -0.110145 -0.993699 0.000430679 16711680 
0.173107 -0.161492 0.310599 0.0221077 -0.113248 -0.993321 0.000417706 16711680 
0.183106 -0.161633 0.310608 0.0239773 -0.116302 -0.992924 0.000403889 16711680 
0.193109 -0.161767 0.310917 0.0288193 -0.119588 -0.992405 0.000388175 16711680 
0.173143 -0.158797 0.310343 0.0191446 -0.0896123 -0.995793 0.000425696 16711680 
0.183175 -0.15654 0.310203 0.0209254 -0.0929322 -0.995453 0.000556482 16711680 
0.213247 -0.152052 0.310631 0.0239835 -0.0853598 -0.996062 0.000141193 16711680 
0.223248 -0.152189 0.31084 0.0202821 -0.0876677 -0.995943 0.000212182 16711680 
0.191143 -0.151754 0.310031 0.021048 -0.0785732 -0.996686 0.000149687 16711680 
0.193243 -0.151782 0.310112 0.0212844 -0.0786345 -0.996676 0.000176226 16711680 
0.203244 -0.15192 0.310221 0.023843 -0.0822959 -0.996323 9.26916e-05 16711680 
0.223383 -0.142204 0.310035 0.0217951 -0.0720781 -0.997161 0.000127545 16711680 
0.233386 -0.142338 0.310344 0.0234719 -0.0736033 -0.997011 3.87485e-05 16711680 
0.243387 -0.142475 0.310553 0.0215717 -0.073983 -0.997026 9.23912e-05 16711680 
0.25339 -0.142607 0.310962 0.0201144 -0.0756484 -0.996932 0.000126936 16711680 
0.26339 -0.142747 0.310971 0.023245 -0.0769388 -0.996765 2.23441e-05 16711680 
0.543511 -0.136691 0.310426 -0.236038 -0.0603137 -0.96987 0.000391194 16711680 
0.283529 -0.133031 0.310785 0.0251476 -0.0641081 -0.997626 7.87486e-05 16711680 
0.243526 -0.132482 0.310148 0.0232642 -0.0632602 -0.997726 4.09828e-05 16711680 
0.253525 -0.132622 0.310157 0.0202491 -0.0632921 -0.99779 1.36292e-05 16711680 
0.263526 -0.13276 0.310266 0.0224393 -0.0640746 -0.997693 0 16711680 
0.273527 -0.132897 0.310475 0.0221457 -0.0653596 -0.997616 8.10635e-05 16711680 
0.283667 -0.12304 0.310279 0.0249471 -0.0596119 -0.99791 6.52427e-06 16711680 
0.293668 -0.123176 0.310489 0.0287094 -0.0600018 -0.997785 0 16711680 
0.303672 -0.123308 0.310898 0.0295177 -0.0627422 -0.997593 3.63605e-05 16711680 
0.533801 -0.116539 0.310906 -0.188155 -0.0743098 -0.979324 0.000586677 16711680 
0.303807 -0.113322 0.310193 0.0295039 -0.0654888 -0.997417 6.45335e-05 16711680 
0.313812 -0.113452 0.310702 0.0264926 -0.0659673 -0.99747 3.60779e-05 16711680 
0.323811 -0.113592 0.310711 0.0185685 -0.067703 -0.997533 4.34928e-05 16711680 
0.333813 -0.113728 0.31092 0.0135091 -0.0702587 -0.997437 7.85218e-05 16711680 
0.533935 -0.106556 0.310001 -0.185793 -0.0816207 -0.979193 0.000334114 16711680 
0.35395 -0.104016 0.310534 0.021654 -0.0942615 -0.995312 0.000103748 16711680 
0.363952 -0.10415 0.310843 0.022995 -0.0917825 -0.995514 6.04336e-05 16711680 
0.313949 -0.103461 0.310197 0.0223546 -0.0818912 -0.996391 0.0001564 16711680 
0.323949 -0.103601 0.310206 0.0149195 -0.0868675 -0.996108 0.000103472 16711680 
0.333949 -0.10374 0.310315 0.00966601 -0.0909322 -0.99581 0.000232637 16711680 
0.34395 -0.103878 0.310424 0.0158149 -0.0932319 -0.995519 0.000100343 16711680 
0.524083 -0.0964023 0.310586 -0.131519 -0.108408 -0.985368 0.000528032 16711680 
0.374088 -0.0943037 0.310147 0.0218176 -0.11328 -0.993324 9.04597e-05 16711680 
0.384089 -0.0944399 0.310356 0.0189235 -0.112901 -0.993426 4.28136e-05 16711680 
0.394091 -0.0945741 0.310665 0.0145639 -0.115209 -0.993235 0.000184314 16711680 
0.404093 -0.0947104 0.310875 0.0126727 -0.110076 -0.993842 0.000162136 16711680 
0.414092 -0.0948507 0.310884 0.0135756 -0.109253 -0.993921 0.000148895 16711680 
0.424093 -0.094989 0.310993 0.0156327 -0.109895 -0.99382 8.2752e-05 16711680 
0.514224 -0.0862651 0.310371 -0.0823873 -0.137107 -0.987124 0.000484874 16711680 
0.444226 -0.085287 0.310107 0.0240464 -0.136275 -0.990379 0.000171272 16711680 
0.454229 -0.0854191 0.310516 0.021417 -0.138878 -0.990078 0.000110094 16711680 
0.464231 -0.0855533 0.310825 0.01681 -0.144276 -0.989395 0.000192621 16711680 
0.47423 -0.0856957 0.310734 0.00922957 -0.143379 -0.989625 0.000173875 16711680 
0.484231 -0.0858319 0.310943 0.00212802 -0.144458 -0.989509 0.000205687 16711680 
-0.687972 -0.229394 0.311744 0.557386 -0.207353 -0.803944 0.0155638 16711680 
-0.687834 -0.219401 0.311338 0.528566 -0.408493 -0.744145 0.0393055 16711680 
-0.517554 -0.201778 0.311785 0.144563 -0.822801 -0.549636 0.0204893 16711680 
-0.357421 -0.194025 0.311828 0.00654536 -0.699145 -0.71495 0.0234077 16711680 
-0.34742 -0.194163 0.311938 0.0241395 -0.697727 -0.715957 0.0231066 16711680 
-0.337421 -0.194303 0.311947 0.0242199 -0.706324 -0.707474 0.0229925 16711680 
-0.417423 -0.193193 0.311273 0.00816333 -0.625992 -0.779787 0.0167663 16711680 
-0.407424 -0.193335 0.311182 0.00782873 -0.629127 -0.777263 0.0165211 16711680 
-0.397425 -0.193476 0.311191 0.00496085 -0.632141 -0.774837 0.0165251 16711680 
-0.387423 -0.193612 0.311401 0.00185587 -0.633856 -0.773449 0.0165665 16711680 
-0.377422 -0.193748 0.31161 0.0149247 -0.686052 -0.7274 0.0222894 16711680 
-0.367421 -0.193886 0.311719 0.0109605 -0.674755 -0.737961 0.0218483 16711680 
-0.137297 -0.187127 0.311227 0.0105339 -0.459745 -0.887989 0.0173754 16711680 
-0.127296 -0.187265 0.311336 0.00251259 -0.458307 -0.888791 0.0174411 16711680 
-0.117296 -0.187404 0.311446 -0.000678242 -0.458362 -0.888765 0.0178628 16711680 
-0.107295 -0.187542 0.311555 0.00660644 -0.463063 -0.886301 0.0176497 16711680 
-0.0972949 -0.18768 0.311664 0.031141 -0.516196 -0.855904 0.0246357 16711680 
-0.0872926 -0.187814 0.311973 0.00711287 -0.554474 -0.83217 0.0277519 16711680 
-0.147298 -0.186991 0.311018 0.00953705 -0.422001 -0.906545 0.0104079 16711680 
0.0527933 -0.183181 0.311968 0.0158896 -0.372279 -0.927985 0.0157368 16711680 
0.0627989 -0.182823 0.311867 0.00776175 -0.373191 -0.927722 0.0144804 16711680 
0.0728129 -0.181866 0.311753 0.0151368 -0.353122 -0.935455 0.0122107 16711680 
0.0728344 -0.180075 0.311317 0.0140805 -0.316553 -0.94847 0.00888848 16711680 
0.0828328 -0.18046 0.311581 0.0167136 -0.319019 -0.947601 0.00846681 16711680 
0.0873361 -0.180273 0.311585 0.0270201 -0.337162 -0.941059 0.00824775 16711680 
0.0928372 -0.180347 0.311735 0.0210866 -0.325782 -0.94521 0.0084835 16711680 
0.102839 -0.180483 0.311944 0.0215908 -0.326559 -0.94493 0.00832052 16711680 
0.0528336 -0.179798 0.311098 0.0103596 -0.316244 -0.948621 0.0106144 16711680 
0.062833 -0.179938 0.311107 0.00696693 -0.317657 -0.94818 0.00980685 16711680 
0.0928479 -0.179451 0.311517 0.0201816 -0.315857 -0.948592 0.00901538 16711680 
0.102863 -0.178394 0.311401 0.0254693 -0.297392 -0.954416 0.00959173 16711680 
0.112879 -0.177337 0.311286 0.0205985 -0.296186 -0.954908 0.00963749 16711680 
0.122903 -0.17568 0.311158 0.015758 -0.265883 -0.963877 0.00692394 16711680 
0.132918 -0.174623 0.311043 0.0183192 -0.266312 -0.963713 0.00651905 16711680 
0.15297 -0.171202 0.311085 0.0398181 -0.221799 -0.974279 0.00315592 16711680 
0.162974 -0.171332 0.311595 0.0316169 -0.231142 -0.972406 0.00328046 16711680 
0.172974 -0.171473 0.311604 0.0323302 -0.22463 -0.973908 0.00279276 16711680 
0.182976 -0.171607 0.311913 0.0222085 -0.2223 -0.974725 0.00244004 16711680 
0.213115 -0.162031 0.311736 0.0264578 -0.120478 -0.992363 0.000304373 16711680 
0.223116 -0.162167 0.311945 0.0199153 -0.121081 -0.992443 0.000367324 16711680 
0.203112 -0.161899 0.311326 0.0306241 -0.119136 -0.992406 0.000318397 16711680 
0.543238 -0.156667 0.311736 -0.23585 -0.102454 -0.966374 0.00149503 16711680 
0.23325 -0.152325 0.311049 0.0213728 -0.0884954 -0.995847 0.000103228 16711680 
0.243251 -0.152461 0.311258 0.0220166 -0.0897765 -0.995719 0.000112374 16711680 
0.253255 -0.152593 0.311667 0.0209106 -0.0908713 -0.995643 1.58645e-05 16711680 
0.263256 -0.15273 0.311877 0.0240637 -0.0921778 -0.995452 0.00016234 16711680 
0.273256 -0.152868 0.311986 0.0229728 -0.094726 -0.995238 5.11264e-05 16711680 
0.543374 -0.14668 0.311031 -0.236971 -0.0664271 -0.969243 0.000611299 16711680 
0.283395 -0.143015 0.31159 0.0250737 -0.0782123 -0.996621 3.40844e-05 16711680 
0.293396 -0.143152 0.311799 0.0285651 -0.0771276 -0.996612 0 16711680 
0.273391 -0.142883 0.311181 0.0224199 -0.07855 -0.996658 0.000123075 16711680 
0.293532 -0.133165 0.311094 0.0287574 -0.0643076 -0.997516 0 16711680 
0.303535 -0.133297 0.311503 0.0292101 -0.0664094 -0.997365 1.17656e-05 16711680 
0.313537 -0.133431 0.311812 0.0302715 -0.0674627 -0.997262 0.000125119 16711680 
0.533665 -0.126525 0.311611 -0.191618 -0.0715744 -0.978856 0.00049736 16711680 
0.313673 -0.123445 0.311107 0.0290173 -0.063967 -0.99753 9.03515e-05 16711680 
0.323675 -0.123579 0.311416 0.0219533 -0.0647403 -0.997661 2.25385e-05 16711680 
0.333678 -0.123713 0.311725 0.0170806 -0.0674388 -0.997577 0 16711680 
0.343678 -0.123851 0.311835 0.0208991 -0.0711352 -0.997248 1.78592e-05 16711680 
0.353814 -0.114003 0.311239 0.022451 -0.0770864 -0.996772 7.97069e-05 16711680 
0.363818 -0.114135 0.311648 0.0242359 -0.0773032 -0.996713 5.78365e-05 16711680 
0.37382 -0.114269 0.311957 0.0223384 -0.0770745 -0.996775 8.3604e-06 16711680 
0.343814 -0.113865 0.31113 0.0180352 -0.0748565 -0.997031 4.27309e-05 16711680 
0.523949 -0.106385 0.311491 -0.137662 -0.0890738 -0.986466 0.000564947 16711680 
0.373955 -0.104285 0.311152 0.0226709 -0.091588 -0.995539 0.000105009 16711680 
0.383956 -0.104421 0.311361 0.0188236 -0.0905579 -0.995713 9.5143e-05 16711680 
0.393957 -0.104557 0.31157 0.0152927 -0.089712 -0.99585 0.000103124 16711680 
0.403958 -0.104695 0.31168 0.0158343 -0.0900977 -0.995807 9.64841e-05 16711680 
0.413958 -0.104836 0.311689 0.0159866 -0.0920587 -0.995625 8.08815e-05 16711680 
0.423959 -0.104972 0.311898 0.0173922 -0.0947005 -0.995354 6.78128e-05 16711680 
0.514094 -0.0962396 0.311676 -0.0795652 -0.108576 -0.990899 0.000457348 16711680 
0.434092 -0.0951293 0.311002 0.0217157 -0.111185 -0.993562 0.00013789 16711680 
0.444094 -0.0952655 0.311212 0.0251926 -0.11199 -0.99339 0.000111289 16711680 
0.454098 -0.0953956 0.311721 0.0240664 -0.113716 -0.993222 0.000108502 16711680 
0.464099 -0.0955319 0.31193 0.019849 -0.11591 -0.993061 0.000264682 16711680 
0.504231 -0.0861105 0.311062 -0.0385939 -0.139828 -0.989424 0.000481265 16711680 
0.494233 -0.0859682 0.311153 -0.0128202 -0.143866 -0.989514 0.000270468 16711680 
-0.68811 -0.239385 0.312249 0.589302 -0.0211632 -0.807636 0.00199571 16711680 
-0.327416 -0.194431 0.312556 0.0242175 -0.702113 -0.711654 0.0233619 16711680 
-0.317412 -0.194563 0.312965 0.00626942 -0.696764 -0.717273 0.0229249 16711680 
-0.0373021 -0.189597 0.312942 -0.00258065 -0.530639 -0.847594 0.0207958 16711680 
-0.0272965 -0.18924 0.312841 0.00369874 -0.532826 -0.846217 0.0218712 16711680 
-0.0672917 -0.188091 0.312192 1.81217e-05 -0.56621 -0.824261 0.0260609 16711680 
-0.0572894 -0.188225 0.312501 -0.00486681 -0.555612 -0.831428 0.0241819 16711680 
-0.0472899 -0.188365 0.31251 -0.00888822 -0.544755 -0.838548 0.0205876 16711680 
-0.0372904 -0.188506 0.31252 -0.00257258 -0.530672 -0.847574 0.020787 16711680 
-0.02729 -0.188644 0.312629 0.00369874 -0.532826 -0.846217 0.0218712 16711680 
-0.021089 -0.188728 0.312773 0.0226821 -0.54741 -0.836557 0.017343 16711680 
-0.0172858 -0.18858 0.312834 0.0219367 -0.518733 -0.854655 0.0232729 16711680 
-0.0772912 -0.18795 0.312183 -0.00614395 -0.567899 -0.823075 0.0275395 16711680 
-0.00727549 -0.187825 0.312625 0.0354868 -0.502237 -0.864002 0.023669 16711680 
0.00273151 -0.187367 0.312522 0.0407234 -0.500328 -0.864878 0.0215721 16711680 
0.0127497 -0.18611 0.312402 0.0342751 -0.44313 -0.895802 0.0242314 16711680 
0.022761 -0.185353 0.312293 0.0253663 -0.432304 -0.901371 0.023695 16711680 
0.0327709 -0.184695 0.312186 0.0145825 -0.422969 -0.906027 0.0214658 16711680 
0.0427821 -0.183938 0.312077 0.00517118 -0.37896 -0.925398 0.0154974 16711680 
0.142845 -0.181026 0.312881 0.0364198 -0.361448 -0.931681 0.0105976 16711680 
0.11284 -0.18062 0.312153 0.0183302 -0.325806 -0.945259 0.00792524 16711680 
0.122841 -0.180756 0.312363 0.0119329 -0.326908 -0.944981 0.00722247 16711680 
0.132844 -0.18089 0.312672 0.0132436 -0.34922 -0.936947 0.0095121 16711680 
0.552961 -0.176793 0.312556 -0.253597 -0.361412 -0.897257 0.0130387 16711680 
0.192977 -0.171743 0.312122 0.023065 -0.21988 -0.975254 0.00234051 16711680 
0.202982 -0.171873 0.312631 0.0237078 -0.210732 -0.977256 0.002469 16711680 
0.543107 -0.166643 0.312941 -0.232769 -0.184881 -0.954797 0.00317157 16711680 
0.233118 -0.162304 0.312154 0.0216102 -0.121448 -0.992363 0.000306316 16711680 
0.243117 -0.162444 0.312163 0.0223243 -0.121092 -0.99239 0.00029502 16711680 
0.25312 -0.162578 0.312472 0.0223282 -0.121936 -0.992287 0.000447791 16711680 
0.263123 -0.16271 0.312882 0.0250218 -0.121472 -0.99228 0.000329456 16711680 
0.28326 -0.153 0.312395 0.0250115 -0.0965629 -0.995013 0.000111363 16711680 
0.29326 -0.153138 0.312504 0.0278537 -0.0950675 -0.995081 5.55514e-05 16711680 
0.303262 -0.153273 0.312813 0.0281892 -0.0928698 -0.995279 0.000220769 16711680 
0.303397 -0.143288 0.312008 0.0287846 -0.0756662 -0.996718 1.70252e-05 16711680 
0.313401 -0.143418 0.312517 0.0307286 -0.0739282 -0.99679 1.8458e-05 16711680 
0.323404 -0.143552 0.312827 0.0261471 -0.0747843 -0.996857 4.62567e-05 16711680 
0.533531 -0.136508 0.312516 -0.193302 -0.0691484 -0.9787 0.000529293 16711680 
0.32354 -0.133565 0.312121 0.0253914 -0.0689148 -0.997299 0 16711680 
0.333541 -0.133702 0.312331 0.0205988 -0.0704546 -0.997302 3.02998e-06 16711680 
0.34354 -0.133842 0.31234 0.0225671 -0.0714672 -0.997188 8.06978e-05 16711680 
0.353544 -0.133974 0.312749 0.0240886 -0.0710569 -0.997181 0 16711680 
0.363683 -0.12412 0.312453 0.0245421 -0.0721427 -0.997092 6.66043e-05 16711680 
0.373684 -0.124256 0.312662 0.0204568 -0.0715436 -0.997228 1.63989e-05 16711680 
0.383684 -0.124396 0.312672 0.0146227 -0.0708257 -0.997382 0 16711680 
0.393685 -0.124532 0.312881 0.0151391 -0.0718266 -0.997302 0 16711680 
0.353679 -0.123987 0.312044 0.0239827 -0.0725611 -0.997076 1.23209e-05 16711680 
0.523814 -0.11637 0.312296 -0.127 -0.0778747 -0.988841 0.000339794 16711680 
0.383821 -0.114405 0.312166 0.0172559 -0.0752245 -0.997017 1.01766e-05 16711680 
0.393822 -0.114544 0.312276 0.0155089 -0.0748419 -0.997075 4.94866e-05 16711680 
0.403821 -0.114684 0.312285 0.017366 -0.07664 -0.996908 3.04089e-05 16711680 
0.413823 -0.11482 0.312494 0.0186162 -0.080604 -0.996572 9.54843e-06 16711680 
0.423825 -0.114954 0.312803 0.0203887 -0.0843689 -0.996226 1.48106e-05 16711680 
0.513959 -0.106224 0.312482 -0.0821724 -0.0895862 -0.992584 0.000473863 16711680 
0.43396 -0.105108 0.312107 0.0210307 -0.0957312 -0.995185 6.48343e-05 16711680 
0.443962 -0.105244 0.312317 0.0239203 -0.0961636 -0.995078 0.000124494 16711680 
0.453966 -0.105374 0.312826 0.0237698 -0.0955349 -0.995142 0.000114739 16711680 
0.504099 -0.0960891 0.312167 -0.0407061 -0.112264 -0.992844 0.000405107 16711680 
0.474102 -0.0956661 0.312239 0.0122064 -0.115226 -0.993264 0.000228964 16711680 
0.484104 -0.0958003 0.312548 0.00301633 -0.116603 -0.993174 0.000138032 16711680 
0.494102 -0.0959426 0.312458 -0.0124271 -0.116075 -0.993163 0.000297077 16711680 
-0.667668 -0.209628 0.313951 0.238741 -0.793361 -0.559983 0.0514267 16711680 
0.582687 -0.197189 0.313894 -0.288191 -0.72532 -0.625185 0.0215703 16711680 
-0.277408 -0.19511 0.313702 0.0177167 -0.676426 -0.736297 0.0242442 16711680 
-0.267408 -0.195251 0.313711 0.0205554 -0.670347 -0.741763 0.0250901 16711680 
-0.257408 -0.195389 0.313821 0.0131887 -0.67776 -0.735165 0.0245437 16711680 
-0.307411 -0.1947 0.313174 -0.00481979 -0.689402 -0.724363 0.0227955 16711680 
-0.297411 -0.194838 0.313284 -0.00473437 -0.682835 -0.730557 0.0227248 16711680 
-0.287407 -0.19497 0.313693 0.0107592 -0.672078 -0.740402 0.0233691 16711680 
-0.137355 -0.192972 0.313948 0.0101908 -0.608627 -0.793391 0.033889 16711680 
-0.127353 -0.192814 0.313851 0.0155469 -0.626837 -0.778995 0.0348302 16711680 
-0.11735 -0.192657 0.313754 -0.00596344 -0.615241 -0.788316 0.0345716 16711680 
-0.107346 -0.192399 0.313655 -0.0162898 -0.619827 -0.784569 0.0338481 16711680 
-0.0973398 -0.192042 0.313554 0.013461 -0.62004 -0.784455 0.0337148 16711680 
-0.0873286 -0.191285 0.313445 0.00711789 -0.587326 -0.809319 0.027498 16711680 
-0.0773202 -0.190727 0.31334 -0.00583579 -0.600116 -0.799891 0.0270119 16711680 
-0.0673189 -0.19067 0.313245 0.000573745 -0.597901 -0.80157 0.0253742 16711680 
-0.0573077 -0.189912 0.313136 -0.00487874 -0.555621 -0.831421 0.0241991 16711680 
-0.0473035 -0.189655 0.313037 -0.00889675 -0.544745 -0.838555 0.0205969 16711680 
0.00271605 -0.189049 0.313456 0.0379683 -0.533627 -0.844868 0.0188061 16711680 
0.0127202 -0.189179 0.313966 0.0260442 -0.533726 -0.845256 0.0186376 16711680 
-0.00728534 -0.188912 0.313247 0.0351942 -0.535802 -0.84361 0.0206626 16711680 
0.562824 -0.186922 0.313171 -0.283368 -0.475907 -0.832595 0.0149648 16711680 
0.152848 -0.181158 0.31329 0.036574 -0.361555 -0.931633 0.011131 16711680 
0.162852 -0.181291 0.313699 0.0294737 -0.399969 -0.916055 0.0141898 16711680 
0.212985 -0.172005 0.313041 0.0200411 -0.220239 -0.97524 0.00200655 16711680 
0.222985 -0.172144 0.31315 0.0292299 -0.228386 -0.973132 0.00172223 16711680 
0.232987 -0.17228 0.313359 0.0250114 -0.225501 -0.973922 0.00175736 16711680 
0.242988 -0.172416 0.313568 0.0275026 -0.222601 -0.974522 0.00163096 16711680 
0.252989 -0.172552 0.313778 0.0210326 -0.223523 -0.974472 0.00159609 16711680 
0.293128 -0.163117 0.313609 0.0262081 -0.150015 -0.988336 0.000824107 16711680 
0.30313 -0.163251 0.313919 0.0209906 -0.155093 -0.987677 0.000913857 16711680 
0.273124 -0.162846 0.313091 0.0236496 -0.143024 -0.989437 0.00103128 16711680 
0.283127 -0.162981 0.3134 0.0269158 -0.15312 -0.987841 0.00106191 16711680 
0.533259 -0.156483 0.313827 -0.182822 -0.101496 -0.977893 0.00126798 16711680 
0.313266 -0.153405 0.313223 0.0294407 -0.0914236 -0.995377 0.0001319 16711680 
0.323268 -0.153539 0.313532 0.0267258 -0.0909604 -0.995496 3.50288e-06 16711680 
0.333269 -0.153675 0.313741 0.0233946 -0.091622 -0.995519 0.000103002 16711680 
0.533394 -0.146499 0.313021 -0.19451 -0.0675171 -0.978574 0.000784425 16711680 
0.363411 -0.144093 0.313863 0.0230649 -0.0748511 -0.996928 4.01124e-05 16711680 
0.333406 -0.143686 0.313136 0.0225369 -0.0757 -0.996876 3.49689e-05 16711680 
0.343407 -0.143825 0.313245 0.0223943 -0.074069 -0.997002 0 16711680 
0.353408 -0.143961 0.313454 0.0224857 -0.0735632 -0.997037 9.66944e-06 16711680 
0.523542 -0.136345 0.313607 -0.124704 -0.0668289 -0.989941 0.000438501 16711680 
0.363547 -0.134106 0.313158 0.0244876 -0.0718144 -0.997117 1.17514e-05 16711680 
0.373547 -0.134245 0.313268 0.02117 -0.0713604 -0.997226 3.19001e-05 16711680 
0.383548 -0.134383 0.313377 0.0154912 -0.0714378 -0.997325 0 16711680 
0.393549 -0.134519 0.313586 0.0167289 -0.0732542 -0.997173 1.27931e-05 16711680 
0.40355 -0.134657 0.313695 0.0202682 -0.0739066 -0.997059 3.34779e-05 16711680 
0.523679 -0.126357 0.313001 -0.126523 -0.0717913 -0.989362 0.000462856 16711680 
0.403686 -0.124669 0.31309 0.0197517 -0.0733016 -0.997114 8.90049e-05 16711680 
0.413688 -0.124805 0.313299 0.0228703 -0.0758543 -0.996857 1.6097e-05 16711680 
0.423691 -0.124937 0.313708 0.0237506 -0.0786517 -0.996619 6.24732e-07 16711680 
0.513826 -0.116205 0.313487 -0.0825059 -0.0784591 -0.993497 0.000355972 16711680 
0.433826 -0.115091 0.313013 0.0206916 -0.0854469 -0.996128 0.000140186 16711680 
0.443829 -0.115225 0.313322 0.0218786 -0.0847964 -0.996158 3.96073e-05 16711680 
0.453829 -0.115363 0.313431 0.0226228 -0.0824236 -0.996341 3.70624e-05 16711680 
0.463833 -0.115493 0.31394 0.0205606 -0.0778729 -0.996751 0.000115425 16711680 
0.473833 -0.115634 0.313949 0.0147593 -0.075419 -0.997043 5.45482e-05 16711680 
0.483832 -0.115774 0.313959 0.00442429 -0.0758487 -0.99711 0 16711680 
0.503966 -0.10607 0.313172 -0.0426704 -0.0906617 -0.994967 0.000353066 16711680 
0.463968 -0.105509 0.313135 0.0208212 -0.0935249 -0.995399 0.000132441 16711680 
0.47397 -0.105645 0.313344 0.0139947 -0.0913246 -0.995723 0.000198838 16711680 
0.483969 -0.105785 0.313353 0.00499982 -0.0921839 -0.995729 0.000187417 16711680 
0.493968 -0.105928 0.313263 -0.0117343 -0.092706 -0.995624 0.000156879 16711680 
-0.507532 -0.20187 0.314194 0.106619 -0.821501 -0.560151 0.0176757 16711680 
-0.237408 -0.196347 0.314953 0.0319754 -0.749053 -0.661738 0.022354 16711680 
-0.227404 -0.196089 0.314854 0.00949475 -0.731226 -0.682069 0.0239881 16711680 
-0.247405 -0.195521 0.31423 0.0221569 -0.702906 -0.710937 0.025419 16711680 
-0.237403 -0.195657 0.314439 0.0072622 -0.72915 -0.684316 0.0234996 16711680 
-0.227402 -0.195794 0.314648 0.00946342 -0.731272 -0.682021 0.0239951 16711680 
-0.217401 -0.195932 0.314757 0.0122491 -0.733166 -0.67994 0.0251166 16711680 
-0.216702 -0.195942 0.314751 -0.00653907 -0.73977 -0.672828 0.0225554 16711680 
-0.207393 -0.195375 0.314652 0.00937705 -0.731176 -0.682124 0.0262909 16711680 
-0.19739 -0.195217 0.314555 0.0147522 -0.725472 -0.688094 0.0255025 16711680 
-0.187386 -0.194959 0.314457 0.0242348 -0.684664 -0.728456 0.0293183 16711680 
-0.17738 -0.194602 0.314356 0.00167535 -0.672073 -0.740483 0.0326365 16711680 
-0.167373 -0.194144 0.314253 0.0105917 -0.657986 -0.752955 0.0317357 16711680 
-0.157371 -0.193987 0.314156 0.011495 -0.605751 -0.795571 0.0345442 16711680 
-0.147361 -0.193329 0.314049 0.0103478 -0.60604 -0.795367 0.0337203 16711680 
0.0227235 -0.189311 0.314375 0.0202176 -0.533426 -0.845605 0.0175349 16711680 
0.0327268 -0.189443 0.314784 0.024231 -0.524369 -0.851146 0.0157722 16711680 
0.0427282 -0.189579 0.314993 0.0157663 -0.524071 -0.851529 0.014245 16711680 
0.172854 -0.181425 0.314009 0.0195851 -0.391807 -0.919839 0.0133671 16711680 
0.182853 -0.181565 0.314018 0.000543726 -0.389305 -0.921109 0.013275 16711680 
0.192857 -0.181697 0.314427 0.0143559 -0.395793 -0.918228 0.0143463 16711680 
0.20286 -0.181829 0.314836 0.0158751 -0.400723 -0.916062 0.0141317 16711680 
0.542983 -0.176605 0.314846 -0.19439 -0.345771 -0.917962 0.00824382 16711680 
0.262993 -0.172685 0.314187 0.0225618 -0.220863 -0.975044 0.00145066 16711680 
0.272995 -0.172819 0.314496 0.023733 -0.217842 -0.975695 0.00146685 16711680 
0.282997 -0.172955 0.314705 0.0207225 -0.214335 -0.97654 0.00146762 16711680 
0.533125 -0.166466 0.314732 -0.160466 -0.191527 -0.968281 0.00280025 16711680 
0.313133 -0.163385 0.314228 0.0235857 -0.152793 -0.987977 0.000800552 16711680 
0.323133 -0.163524 0.314337 0.0250181 -0.149082 -0.988508 0.000789054 16711680 
0.333136 -0.163656 0.314746 0.0215966 -0.144764 -0.989231 0.000629751 16711680 
0.343138 -0.163792 0.314955 0.0188521 -0.14059 -0.989888 0.000507966 16711680 
0.363274 -0.154082 0.314469 0.0209242 -0.0884823 -0.995858 0.00013156 16711680 
0.373276 -0.154218 0.314678 0.0213289 -0.088247 -0.99587 4.30927e-05 16711680 
0.343272 -0.153809 0.31405 0.021665 -0.0896557 -0.995737 0.000148304 16711680 
0.353272 -0.153948 0.314159 0.0207296 -0.0887061 -0.995842 0.000119365 16711680 
0.52341 -0.146324 0.314712 -0.119864 -0.0762096 -0.989861 0.000484203 16711680 
