# .PCD v.7 - Point Cloud Data file format
VERSION .7
FIELDS x y z normal_x normal_y normal_z curvature rgb
SIZE 4 4 4 4 4 4 4 4
TYPE F F F F F F F U
COUNT 1 1 1 1 1 1 1 1
WIDTH 677
HEIGHT 1
VIEWPOINT 0 0 0 1 0 0 0
POINTS 677
DATA ascii
0.513994 -0.238412 -0.284699 -0.0513927 -0.178865 0.98253 0 8355711 
0.539541 -0.238776 -0.282446 -0.145277 -0.179269 0.973015 0 8355711 
0.559221 -0.241603 -0.278749 -0.243178 -0.18987 0.951217 0 8355711 
-0.560595 -0.209392 -0.278958 0.440554 -0.0541857 0.896089 0 8355711 
-0.538417 -0.203114 -0.28808 0.349825 -0.0684921 0.934308 0 8355711 
-0.510688 -0.204006 -0.296517 0.228738 -0.0714624 0.970861 0 8355711 
-0.494749 -0.201372 -0.299525 0.151539 -0.0503607 0.987168 0 8355711 
-0.401055 -0.202365 -0.300274 -0.0299854 -0.0291157 0.999126 0 8355711 
-0.384083 -0.206894 -0.300013 -0.0289387 -0.072253 0.996966 0 8355711 
-0.363966 -0.204908 -0.299564 -0.0168433 -0.0492571 0.998644 0 8355711 
-0.337648 -0.204932 -0.29897 -0.0163799 -0.0299456 0.999417 0 8355711 
-0.30914 -0.210091 -0.298497 -0.0238547 -0.0777123 0.99669 0 8355711 
-0.288878 -0.208069 -0.298044 -0.0174685 -0.0506355 0.998564 0 8355711 
-0.259832 -0.208375 -0.297543 -0.0222795 -0.0522016 0.998388 0 8355711 
-0.236771 -0.207998 -0.29709 -0.0165003 -0.0387889 0.999111 0 8355711 
-0.210268 -0.209768 -0.296601 -0.0169775 -0.0295048 0.99942 0 8355711 
-0.189513 -0.207532 -0.296304 -0.0163682 -0.0105917 0.99981 0 8355711 
-0.162445 -0.209848 -0.295825 -0.0185462 -0.018935 0.999649 0 8355711 
-0.135665 -0.208848 -0.295395 -0.0179168 -0.0170491 0.999694 0 8355711 
-0.109686 -0.20894 -0.294937 -0.0193818 -0.00991824 0.999763 0 8355711 
-0.0846886 -0.211895 -0.294476 -0.0160677 -0.024969 0.999559 0 8355711 
-0.0586471 -0.209583 -0.294061 -0.0181853 -0.00380463 0.999827 0 8355711 
-0.0365259 -0.212068 -0.293651 -0.0180413 -0.0186832 0.999663 0 8355711 
-0.0126702 -0.21113 -0.293211 -0.0184482 0.00369839 0.999823 0 8355711 
0.0171946 -0.210449 -0.29267 -0.0210541 0.00316085 0.999773 0 8355711 
0.0387904 -0.211653 -0.292187 -0.0187499 0.00830666 0.99979 0 8355711 
0.0671432 -0.210672 -0.291639 -0.0220714 0.0151509 0.999641 0 8355711 
0.0872889 -0.214067 -0.291171 -0.0220287 0.00833673 0.999722 0 8355711 
0.114944 -0.208584 -0.290805 -0.0199436 0.0272484 0.99943 0 8355711 
0.139647 -0.212582 -0.290202 -0.0186963 0.0205595 0.999614 0 8355711 
0.165082 -0.211163 -0.28978 -0.0179095 0.0307974 0.999365 0 8355711 
0.190692 -0.212578 -0.289264 -0.0179282 0.0241211 0.999548 0 8355711 
0.215406 -0.212439 -0.288857 -0.0173831 0.0301253 0.999395 0 8355711 
0.23997 -0.210094 -0.288522 -0.017328 0.0358861 0.999206 0 8355711 
0.262488 -0.211 -0.288132 -0.0172768 0.0302339 0.999393 0 8355711 
0.28901 -0.213031 -0.287625 -0.0172999 0.0306019 0.999382 0 8355711 
0.317864 -0.211283 -0.287174 -0.01642 0.0276909 0.999482 0 8355711 
0.340844 -0.213506 -0.286708 -0.0164525 0.0287657 0.999451 0 8355711 
0.366606 -0.214649 -0.286254 -0.0166242 0.0203465 0.999655 0 8355711 
0.38899 -0.210788 -0.286028 -0.0156117 0.0175844 0.999723 0 8355711 
0.412745 -0.211285 -0.285658 -0.0153758 0.0200461 0.999681 0 8355711 
0.439159 -0.216192 -0.285169 -0.0117944 0.0120637 0.999858 0 8355711 
0.466691 -0.211475 -0.284937 -0.0117277 0.0126831 0.999851 0 8355711 
0.490709 -0.210721 -0.28461 -0.0200621 0.00875659 0.99976 0 8355711 
0.513402 -0.212658 -0.283918 -0.0473276 0.0118002 0.99881 0 8355711 
0.538678 -0.210343 -0.281844 -0.137261 0.0146439 0.990427 0 8355711 
0.556683 -0.210811 -0.278616 -0.225224 0.014431 0.9742 0 8355711 
-0.559497 -0.178796 -0.277996 0.451133 -0.0122018 0.892373 0 8355711 
-0.536715 -0.178999 -0.287877 0.351975 -0.00976999 0.935958 0 8355711 
-0.51139 -0.17991 -0.29576 0.235209 -0.00520368 0.971931 0 8355711 
-0.495031 -0.178493 -0.29912 0.160142 -0.00365246 0.987087 0 8355711 
-0.395325 -0.190689 -0.300267 -0.0176222 0.0321198 0.999329 0 8355711 
-0.359714 -0.183335 -0.299892 -0.0183932 0.0396699 0.999043 0 8355711 
-0.339331 -0.183236 -0.299515 -0.0174988 0.0357385 0.999208 0 8355711 
-0.311653 -0.18638 -0.298974 -0.0165347 0.0385552 0.99912 0 8355711 
-0.284059 -0.180439 -0.298696 -0.0180259 0.0331241 0.999289 0 8355711 
-0.263795 -0.18177 -0.298288 -0.0180599 0.0340259 0.999258 0 8355711 
-0.232495 -0.184148 -0.297649 -0.0158785 0.0326282 0.999341 0 8355711 
-0.211845 -0.184656 -0.297317 -0.0155675 0.0309425 0.9994 0 8355711 
-0.194781 -0.183336 -0.297102 -0.0154445 0.0289094 0.999463 0 8355711 
-0.166576 -0.181416 -0.296685 -0.0167675 0.0259946 0.999521 0 8355711 
-0.136411 -0.181131 -0.296158 -0.0178099 0.0248786 0.999532 0 8355711 
-0.115932 -0.186825 -0.295677 -0.0170446 0.0294973 0.99942 0 8355711 
-0.0867115 -0.181483 -0.295318 -0.0165389 0.02367 0.999583 0 8355711 
-0.0578165 -0.177408 -0.294959 -0.0158716 0.0218187 0.999636 0 8355711 
-0.0360612 -0.178569 -0.294583 -0.0167951 0.0225781 0.999604 0 8355711 
-0.0158622 -0.184294 -0.294097 -0.0178874 0.0272156 0.999469 0 8355711 
0.00952876 -0.180187 -0.293709 -0.0178229 0.0249332 0.99953 0 8355711 
0.0301671 -0.181809 -0.293305 -0.0187486 0.0250445 0.99951 0 8355711 
0.0627895 -0.187003 -0.292574 -0.0180251 0.0298977 0.99939 0 8355711 
0.0907064 -0.181554 -0.292188 -0.0174789 0.0229149 0.999585 0 8355711 
0.110708 -0.183882 -0.291767 -0.0186255 0.0249461 0.999515 0 8355711 
0.13734 -0.182742 -0.2913 -0.0193955 0.0204932 0.999602 0 8355711 
0.167398 -0.186876 -0.290664 -0.0185618 0.0245219 0.999527 0 8355711 
0.189521 -0.184227 -0.290298 -0.0178588 0.0195743 0.999649 0 8355711 
0.216231 -0.185027 -0.289789 -0.018799 0.0186722 0.999649 0 8355711 
0.242207 -0.18729 -0.289259 -0.0192505 0.0171512 0.999668 0 8355711 
0.264773 -0.181454 -0.288875 -0.0192328 0.0116993 0.999747 0 8355711 
0.287841 -0.187227 -0.288372 -0.0190576 0.0153248 0.999701 0 8355711 
0.312981 -0.18891 -0.28787 -0.0190201 0.0163696 0.999685 0 8355711 
0.342364 -0.186154 -0.287315 -0.0189934 0.0113402 0.999755 0 8355711 
0.364585 -0.184039 -0.286923 -0.0179847 0.00801765 0.999806 0 8355711 
0.390142 -0.190186 -0.286441 -0.0167639 0.0109952 0.999799 0 8355711 
0.413242 -0.184569 -0.286098 -0.0169061 0.00554793 0.999842 0 8355711 
0.467342 -0.187634 -0.285231 -0.0157211 0.00570888 0.99986 0 8355711 
0.491682 -0.18752 -0.284793 -0.0173487 0.00390899 0.999842 0 8355711 
0.512471 -0.18357 -0.284291 -0.0424179 0.00298419 0.999095 0 8355711 
0.539665 -0.184376 -0.282022 -0.141004 0.00623827 0.989989 0 8355711 
0.55891 -0.188605 -0.278399 -0.234856 0.0105157 0.971973 0 8355711 
-0.555552 -0.153692 -0.279589 0.438395 -0.013203 0.898685 0 8355711 
-0.531941 -0.150446 -0.289431 0.333277 -0.0111442 0.942763 0 8355711 
-0.508749 -0.15341 -0.296279 0.228086 -0.00698368 0.973616 0 8355711 
-0.493625 -0.154797 -0.299397 0.161318 -0.0015068 0.986901 0 8355711 
-0.310157 -0.159669 -0.299698 -0.0190637 0.0195372 0.999627 0 8355711 
-0.290188 -0.151954 -0.299464 -0.0194717 0.0140887 0.999711 0 8355711 
-0.262223 -0.157225 -0.298858 -0.0188566 0.0154531 0.999703 0 8355711 
-0.236672 -0.15333 -0.298423 -0.0180181 0.0123533 0.999761 0 8355711 
-0.21194 -0.156955 -0.297941 -0.0173649 0.0134869 0.999758 0 8355711 
-0.188898 -0.165969 -0.297423 -0.0175368 0.0186383 0.999672 0 8355711 
-0.173492 -0.150774 -0.297331 -0.018222 0.00843164 0.999798 0 8355711 
-0.140585 -0.155928 -0.296669 -0.0183223 0.00926391 0.999789 0 8355711 
-0.110732 -0.156238 -0.296118 -0.0176461 0.00879079 0.999806 0 8355711 
-0.0904618 -0.16179 -0.295723 -0.0172791 0.0107707 0.999793 0 8355711 
-0.0618808 -0.159683 -0.295283 -0.0155694 0.0100082 0.999829 0 8355711 
-0.0348933 -0.152304 -0.294885 -0.0166504 0.00553492 0.999846 0 8355711 
-0.0123665 -0.157899 -0.294455 -0.0184174 0.00912572 0.999789 0 8355711 
0.0353906 -0.158546 -0.293527 -0.0197174 0.00841995 0.99977 0 8355711 
0.0648867 -0.157549 -0.292941 -0.0198047 0.00605819 0.999785 0 8355711 
0.117162 -0.164372 -0.291894 -0.0192265 0.00637866 0.999795 0 8355711 
0.136536 -0.161641 -0.291519 -0.0203724 0.00415204 0.999784 0 8355711 
0.166637 -0.1605 -0.290922 -0.0194197 0.00213388 0.999809 0 8355711 
0.193599 -0.157559 -0.290401 -0.019987 -0.000650466 0.9998 0 8355711 
0.218055 -0.159322 -0.289885 -0.0209927 -0.00108679 0.999779 0 8355711 
0.240857 -0.165835 -0.28943 -0.0202724 0.00038701 0.999794 0 8355711 
0.261204 -0.154898 -0.288989 -0.0206026 -0.00449103 0.999778 0 8355711 
0.284893 -0.163486 -0.28853 -0.0205737 -0.00213578 0.999786 0 8355711 
0.313041 -0.161389 -0.287966 -0.0197147 -0.00402866 0.999798 0 8355711 
0.335163 -0.155981 -0.287494 -0.0198606 -0.00513865 0.999789 0 8355711 
0.360852 -0.161977 -0.287011 -0.0190441 -0.00396535 0.999811 0 8355711 
0.391674 -0.154622 -0.286403 -0.0183731 -0.00789293 0.9998 0 8355711 
0.416435 -0.161995 -0.285996 -0.0182027 -0.00532327 0.99982 0 8355711 
0.43338 -0.162304 -0.285722 -0.0167657 -0.00598017 0.999842 0 8355711 
0.459983 -0.163294 -0.285298 -0.0157355 -0.00680341 0.999853 0 8355711 
0.494132 -0.161216 -0.284679 -0.019911 -0.00802479 0.999769 0 8355711 
0.517723 -0.160552 -0.284001 -0.050313 -0.00692571 0.998709 0 8355711 
0.541179 -0.159759 -0.281905 -0.143388 -0.000953773 0.989666 0 8355711 
0.558668 -0.163769 -0.27858 -0.22628 0.00457172 0.974052 0 8355711 
-0.55858 -0.128654 -0.277694 0.455671 -0.0136241 0.890044 0 8355711 
-0.537908 -0.129533 -0.286883 0.361054 -0.012249 0.932465 0 8355711 
-0.51185 -0.127983 -0.29524 0.247536 -0.00552248 0.968863 0 8355711 
-0.493906 -0.127618 -0.299159 0.166642 -0.000641779 0.986017 0 8355711 
-0.289737 -0.130565 -0.299617 -0.0198481 0.00335683 0.999797 0 8355711 
-0.261708 -0.135551 -0.299046 -0.0196965 0.00523101 0.999792 0 8355711 
-0.231431 -0.126831 -0.298463 -0.0192223 -0.000131702 0.999815 0 8355711 
-0.211055 -0.126282 -0.298076 -0.0195289 -0.00114909 0.999809 0 8355711 
-0.188307 -0.129988 -0.297677 -0.0180855 -0.000822219 0.999836 0 8355711 
-0.162022 -0.128177 -0.297178 -0.0186096 -0.00191732 0.999825 0 8355711 
-0.139298 -0.134988 -0.296749 -0.0193342 0.000878308 0.999813 0 8355711 
-0.119499 -0.128417 -0.296352 -0.0188069 -0.00241837 0.99982 0 8355711 
-0.0855964 -0.130966 -0.295726 -0.0172954 -0.00365344 0.999844 0 8355711 
-0.0554618 -0.132519 -0.295234 -0.016459 -0.00307338 0.99986 0 8355711 
-0.0372242 -0.129485 -0.294932 -0.0168749 -0.00499626 0.999845 0 8355711 
-0.0122088 -0.124219 -0.294453 -0.0191335 -0.00808188 0.999784 0 8355711 
0.0181333 -0.130874 -0.293904 -0.0193585 -0.00550159 0.999797 0 8355711 
0.0447427 -0.128758 -0.293353 -0.0204962 -0.0065364 0.999769 0 8355711 
0.0615857 -0.123664 -0.29299 -0.0200166 -0.00749789 0.999772 0 8355711 
0.0889049 -0.134468 -0.292479 -0.0205477 -0.00432435 0.999779 0 8355711 
0.119465 -0.139991 -0.291866 -0.0208921 -0.00377059 0.999775 0 8355711 
0.138619 -0.132487 -0.291416 -0.0218974 -0.00626726 0.999741 0 8355711 
0.169702 -0.132424 -0.290737 -0.0210067 -0.00728371 0.999753 0 8355711 
0.184833 -0.138919 -0.290481 -0.0203151 -0.00747851 0.999766 0 8355711 
0.213325 -0.13044 -0.289812 -0.0215269 -0.0105523 0.999713 0 8355711 
0.240623 -0.146505 -0.289378 -0.0208735 -0.00585919 0.999765 0 8355711 
0.270563 -0.137982 -0.288668 -0.0213174 -0.00948406 0.999728 0 8355711 
0.296082 -0.128547 -0.288024 -0.0215681 -0.0125407 0.999689 0 8355711 
0.314084 -0.137665 -0.287748 -0.0201257 -0.0105165 0.999742 0 8355711 
0.349432 -0.129912 -0.286922 -0.0197532 -0.0137782 0.99971 0 8355711 
0.368963 -0.133268 -0.286597 -0.0186526 -0.0129419 0.999742 0 8355711 
0.384665 -0.142265 -0.286413 -0.0185243 -0.0114997 0.999762 0 8355711 
0.403316 -0.130041 -0.285918 -0.0181572 -0.0142461 0.999734 0 8355711 
0.436701 -0.139065 -0.285445 -0.0165956 -0.0119009 0.999791 0 8355711 
0.471609 -0.129722 -0.284749 -0.0173926 -0.0160294 0.99972 0 8355711 
0.490405 -0.142492 -0.284576 -0.0190585 -0.0115139 0.999752 0 8355711 
0.517122 -0.135524 -0.283819 -0.0443465 -0.0109816 0.998956 0 8355711 
0.53918 -0.13845 -0.282071 -0.126974 -0.00475999 0.991895 0 8355711 
0.560532 -0.134281 -0.278246 -0.226552 0.001379 0.973998 0 8355711 
-0.555928 -0.103523 -0.278795 0.449283 -0.00749336 0.893358 0 8355711 
-0.537023 -0.106082 -0.287097 0.361216 -0.0031645 0.932477 0 8355711 
-0.51137 -0.105019 -0.295292 0.248413 -0.00106619 0.968654 0 8355711 
-0.494199 -0.106232 -0.299132 0.164598 -0.00358117 0.986354 0 8355711 
-0.302615 -0.0991719 -0.299758 -0.021284 -0.0150328 0.99966 0 8355711 
-0.287614 -0.107567 -0.299535 -0.0204577 -0.00945411 0.999746 0 8355711 
-0.265796 -0.109637 -0.299101 -0.0204266 -0.00819243 0.999758 0 8355711 
-0.245768 -0.106974 -0.298671 -0.0213146 -0.0106678 0.999716 0 8355711 
-0.211553 -0.10664 -0.297999 -0.0196561 -0.0119579 0.999735 0 8355711 
-0.180908 -0.113623 -0.297481 -0.0185621 -0.0092894 0.999785 0 8355711 
-0.163133 -0.103396 -0.29702 -0.0194685 -0.016683 0.999671 0 8355711 
-0.135332 -0.107385 -0.296524 -0.0198391 -0.0149881 0.999691 0 8355711 
-0.114263 -0.103098 -0.296016 -0.0199685 -0.0180637 0.999637 0 8355711 
-0.0848113 -0.10467 -0.295494 -0.0180932 -0.0164856 0.9997 0 8355711 
-0.0614708 -0.106909 -0.295113 -0.0184539 -0.01658 0.999692 0 8355711 
-0.0333806 -0.111767 -0.2947 -0.0180623 -0.0146024 0.99973 0 8355711 
-0.00107036 -0.0950523 -0.293784 -0.0187218 -0.0258664 0.99949 0 8355711 
0.00453643 -0.107337 -0.29394 -0.0190533 -0.0171478 0.999671 0 8355711 
0.0389647 -0.106075 -0.293233 -0.0200406 -0.0168951 0.999656 0 8355711 
0.0711352 -0.105351 -0.292574 -0.0202984 -0.0175499 0.99964 0 8355711 
0.0830618 -0.112612 -0.292429 -0.0212741 -0.0137521 0.999679 0 8355711 
0.112435 -0.108797 -0.291718 -0.0216027 -0.0171404 0.99962 0 8355711 
0.133745 -0.115354 -0.291377 -0.0223187 -0.0138412 0.999655 0 8355711 
0.164914 -0.115721 -0.290681 -0.0216728 -0.0146128 0.999658 0 8355711 
0.189743 -0.106231 -0.289959 -0.0225911 -0.0213245 0.999517 0 8355711 
0.223538 -0.108121 -0.289242 -0.0213698 -0.0213672 0.999543 0 8355711 
0.2425 -0.109358 -0.288877 -0.0209647 -0.0210018 0.99956 0 8355711 
0.267387 -0.105093 -0.288255 -0.0217027 -0.0223692 0.999514 0 8355711 
0.29101 -0.105303 -0.287723 -0.0225894 -0.0228412 0.999484 0 8355711 
0.314532 -0.10384 -0.287168 -0.0210699 -0.0241444 0.999486 0 8355711 
0.33961 -0.110309 -0.286803 -0.0201923 -0.0212344 0.99957 0 8355711 
0.375968 -0.0996215 -0.285853 -0.0180107 -0.0252964 0.999518 0 8355711 
0.392375 -0.10735 -0.285735 -0.0186206 -0.0217656 0.99959 0 8355711 
0.408009 -0.107748 -0.285442 -0.0192517 -0.0216657 0.99958 0 8355711 
0.439116 -0.114847 -0.285026 -0.0173563 -0.0206717 0.999636 0 8355711 
0.462357 -0.104252 -0.284383 -0.017059 -0.0241678 0.999562 0 8355711 
0.489905 -0.105725 -0.283956 -0.017911 -0.0235458 0.999562 0 8355711 
0.516535 -0.113816 -0.283487 -0.0431901 -0.0180082 0.998905 0 8355711 
0.539544 -0.108976 -0.281786 -0.118044 -0.0140016 0.99291 0 8355711 
0.558949 -0.111023 -0.278567 -0.21773 -0.00787037 0.975977 0 8355711 
-0.558899 -0.0789502 -0.276949 0.468944 -0.0176759 0.883051 0 8355711 
-0.536796 -0.0802011 -0.286945 0.363249 -0.0132519 0.931598 0 8355711 
-0.51114 -0.0809705 -0.29523 0.247685 -0.0101575 0.968787 0 8355711 
-0.494424 -0.0765525 -0.298899 0.165994 -0.0104425 0.986071 0 8355711 
-0.317012 -0.0723135 -0.299466 -0.0222933 -0.0313591 0.999259 0 8355711 
-0.289134 -0.0831652 -0.299147 -0.0214551 -0.0242771 0.999475 0 8355711 
-0.265105 -0.0813637 -0.298601 -0.0221154 -0.0263984 0.999407 0 8355711 
-0.235971 -0.0872465 -0.298136 -0.020932 -0.023732 0.999499 0 8355711 
-0.210897 -0.0830657 -0.29749 -0.0207161 -0.0272024 0.999415 0 8355711 
-0.191182 -0.0814556 -0.29703 -0.0203789 -0.0290646 0.99937 0 8355711 
-0.164458 -0.0878237 -0.29669 -0.0200888 -0.0265603 0.999445 0 8355711 
-0.138143 -0.0835828 -0.296041 -0.020177 -0.0290025 0.999376 0 8355711 
-0.109093 -0.0797695 -0.295334 -0.0198468 -0.0315634 0.999305 0 8355711 
-0.0824222 -0.0817391 -0.294878 -0.019396 -0.031112 0.999328 0 8355711 
-0.0510852 -0.0912693 -0.294594 -0.0186625 -0.0259853 0.999488 0 8355711 
-0.0353686 -0.0807009 -0.293988 -0.0179367 -0.0328419 0.9993 0 8355711 
-0.00960927 -0.0852738 -0.293662 -0.0187191 -0.0306139 0.999356 0 8355711 
0.0121906 -0.0836262 -0.293187 -0.0198273 -0.0318651 0.999295 0 8355711 
0.043109 -0.082123 -0.292551 -0.0192662 -0.0334309 0.999255 0 8355711 
0.0614658 -0.0813422 -0.29213 -0.0204409 -0.0331734 0.99924 0 8355711 
0.0865699 -0.085504 -0.291748 -0.0216095 -0.0304898 0.999301 0 8355711 
0.109367 -0.0876191 -0.291309 -0.0227114 -0.0291459 0.999317 0 8355711 
0.141214 -0.0866673 -0.290534 -0.0226031 -0.0297762 0.999301 0 8355711 
0.166624 -0.0845108 -0.289895 -0.0222499 -0.0312616 0.999264 0 8355711 
0.194626 -0.0848976 -0.2893 -0.023293 -0.0318668 0.999221 0 8355711 
0.213902 -0.0828216 -0.28876 -0.0218975 -0.0316115 0.99926 0 8355711 
0.238595 -0.0823891 -0.288212 -0.0217421 -0.0338085 0.999192 0 8355711 
0.277697 -0.0843364 -0.287443 -0.0221282 -0.0324016 0.99923 0 8355711 
0.31459 -0.0839575 -0.286616 -0.0203806 -0.0300003 0.999342 0 8355711 
0.333541 -0.0909587 -0.286452 -0.0199955 -0.0278894 0.999411 0 8355711 
0.361802 -0.0805321 -0.285556 -0.0182832 -0.0319196 0.999323 0 8355711 
0.388363 -0.0844894 -0.285196 -0.0186181 -0.0305675 0.999359 0 8355711 
0.410224 -0.0870559 -0.284854 -0.0189589 -0.0294523 0.999386 0 8355711 
0.43809 -0.0823494 -0.284195 -0.0184913 -0.0321778 0.999311 0 8355711 
0.462095 -0.0807165 -0.283698 -0.018239 -0.0339501 0.999257 0 8355711 
0.485884 -0.0797993 -0.283264 -0.0173638 -0.0352225 0.999229 0 8355711 
0.515788 -0.0821099 -0.28271 -0.0341118 -0.0339264 0.998842 0 8355711 
0.539855 -0.083352 -0.281156 -0.115299 -0.0317496 0.992823 0 8355711 
0.559267 -0.0831967 -0.277971 -0.225338 -0.0351065 0.973648 0 8355711 
-0.555861 -0.0541564 -0.277817 0.460118 -0.0317765 0.887289 0 8355711 
-0.537744 -0.0564841 -0.286031 0.37093 -0.0260561 0.928295 0 8355711 
-0.513171 -0.0512108 -0.29416 0.258813 -0.0230802 0.965652 0 8355711 
-0.495315 -0.0508915 -0.29821 0.162604 -0.028131 0.98629 0 8355711 
-0.310594 -0.0523279 -0.298553 -0.021664 -0.0437856 0.998806 0 8355711 
-0.289711 -0.0544344 -0.298186 -0.0231213 -0.0427131 0.99882 0 8355711 
-0.266705 -0.0581033 -0.297863 -0.0211873 -0.0401108 0.998971 0 8355711 
-0.235882 -0.0580411 -0.297159 -0.0216694 -0.041558 0.998901 0 8355711 
-0.210281 -0.0556937 -0.296524 -0.0218688 -0.0443544 0.998776 0 8355711 
-0.187094 -0.0559604 -0.296012 -0.0214801 -0.0433534 0.998829 0 8355711 
-0.157087 -0.0675853 -0.295892 -0.0204291 -0.0381246 0.999064 0 8355711 
-0.138408 -0.058676 -0.295139 -0.0203166 -0.0436607 0.99884 0 8355711 
-0.109027 -0.0512764 -0.294201 -0.0195531 -0.0469302 0.998707 0 8355711 
-0.0841038 -0.0567791 -0.293941 -0.0198327 -0.0445227 0.998811 0 8355711 
-0.0596817 -0.0582828 -0.293567 -0.0191329 -0.0455167 0.99878 0 8355711 
-0.0347857 -0.0587011 -0.293116 -0.01815 -0.0454516 0.998802 0 8355711 
-0.00933015 -0.0567301 -0.29255 -0.0185952 -0.0463819 0.998751 0 8355711 
0.0124266 -0.0585812 -0.292235 -0.0198638 -0.0455039 0.998767 0 8355711 
0.0317243 -0.0659741 -0.292162 -0.0203898 -0.0418376 0.998916 0 8355711 
0.0567857 -0.0572453 -0.291285 -0.0197525 -0.0461366 0.99874 0 8355711 
0.0870566 -0.0557339 -0.290579 -0.0208925 -0.046176 0.998715 0 8355711 
0.110453 -0.0616054 -0.290336 -0.0222986 -0.0411974 0.998902 0 8355711 
0.136452 -0.0586629 -0.289609 -0.0225657 -0.0435911 0.998794 0 8355711 
0.159041 -0.0536871 -0.28889 -0.0224627 -0.0458836 0.998694 0 8355711 
0.189825 -0.0609935 -0.288507 -0.0226996 -0.0423754 0.998844 0 8355711 
0.222481 -0.05672 -0.287568 -0.0225145 -0.0423451 0.998849 0 8355711 
0.240323 -0.0600743 -0.287313 -0.0217439 -0.0419512 0.998883 0 8355711 
0.265812 -0.0580749 -0.286687 -0.0212105 -0.0439001 0.998811 0 8355711 
0.292359 -0.0638225 -0.286359 -0.0211805 -0.0401608 0.998969 0 8355711 
0.308592 -0.0498094 -0.285468 -0.019335 -0.0480526 0.998658 0 8355711 
0.3317 -0.0588056 -0.285381 -0.0202588 -0.0415474 0.998931 0 8355711 
0.357219 -0.0555384 -0.284758 -0.0203316 -0.0422948 0.998898 0 8355711 
0.390919 -0.0572465 -0.284186 -0.0191094 -0.0413823 0.998961 0 8355711 
0.421071 -0.0587253 -0.283643 -0.0195455 -0.0422498 0.998916 0 8355711 
0.437825 -0.0553897 -0.283207 -0.0197367 -0.0437041 0.998849 0 8355711 
0.464838 -0.0594624 -0.282843 -0.0192915 -0.0428996 0.998893 0 8355711 
0.492175 -0.0659503 -0.282617 -0.0186986 -0.0410315 0.998983 0 8355711 
0.51483 -0.0596983 -0.281854 -0.0345798 -0.0481496 0.998241 0 8355711 
0.541218 -0.0619465 -0.280133 -0.12855 -0.0562915 0.990104 0 8355711 
0.5564 -0.0639317 -0.277731 -0.220406 -0.0644007 0.97328 0 8355711 
-0.554153 -0.0279784 -0.277627 0.464453 -0.0504242 0.884161 0 8355711 
-0.535438 -0.0279626 -0.286081 0.368852 -0.0425425 0.928514 0 8355711 
-0.510351 -0.0281835 -0.294224 0.2394 -0.0387087 0.970149 0 8355711 
-0.489002 -0.0265623 -0.298029 0.115147 -0.0498095 0.992099 0 8355711 
-0.379929 -0.0293392 -0.298946 -0.0200163 -0.0501421 0.998541 0 8355711 
-0.360183 -0.0315536 -0.298656 -0.021564 -0.0523079 0.998398 0 8355711 
-0.337913 -0.0318023 -0.298187 -0.0225254 -0.0503395 0.998478 0 8355711 
-0.310479 -0.0273836 -0.297336 -0.0218524 -0.0506058 0.99848 0 8355711 
-0.283467 -0.0319204 -0.296973 -0.0218698 -0.0495567 0.998532 0 8355711 
-0.261822 -0.0254379 -0.296145 -0.0228001 -0.0524478 0.998363 0 8355711 
-0.233671 -0.0285496 -0.295691 -0.0220724 -0.0507959 0.998465 0 8355711 
-0.214551 -0.0354123 -0.295622 -0.0216375 -0.0505796 0.998486 0 8355711 
-0.185988 -0.0239875 -0.294384 -0.0217362 -0.055102 0.998244 0 8355711 
-0.158226 -0.0293513 -0.294054 -0.020411 -0.0534049 0.998364 0 8355711 
-0.139528 -0.0294442 -0.293683 -0.019629 -0.0558895 0.998244 0 8355711 
-0.111701 -0.0290243 -0.293107 -0.0207506 -0.0536137 0.998346 0 8355711 
-0.0852023 -0.0298647 -0.292621 -0.0207151 -0.056012 0.998215 0 8355711 
-0.0609064 -0.03046 -0.292149 -0.0196348 -0.0577392 0.998139 0 8355711 
-0.036669 -0.0296865 -0.291643 -0.0185956 -0.059618 0.998048 0 8355711 
-0.0123315 -0.0308666 -0.291262 -0.0191822 -0.0576398 0.998153 0 8355711 
0.0133692 -0.0291151 -0.290646 -0.020099 -0.0669532 0.997554 0 8355711 
0.0368673 -0.033379 -0.290434 -0.0209649 -0.059412 0.998013 0 8355711 
0.0633157 -0.0287694 -0.289627 -0.0208444 -0.0714545 0.997226 0 8355711 
0.087746 -0.0297106 -0.289237 -0.018641 -0.0625696 0.997866 0 8355711 
0.113115 -0.0307378 -0.28874 -0.0224059 -0.0649974 0.997634 0 8355711 
0.14026 -0.0298958 -0.288087 -0.0241815 -0.0632015 0.997708 0 8355711 
0.16995 -0.0354668 -0.287718 -0.0223446 -0.0601314 0.99794 0 8355711 
0.193477 -0.027897 -0.286682 -0.0242522 -0.075426 0.996856 0 8355711 
0.211992 -0.0326328 -0.286558 -0.0229112 -0.0703498 0.997259 0 8355711 
0.240239 -0.0317169 -0.285863 -0.0212644 -0.0723827 0.99715 0 8355711 
0.26116 -0.0327985 -0.285547 -0.0190094 -0.0650573 0.9977 0 8355711 
0.289004 -0.0326941 -0.284944 -0.0201659 -0.0661825 0.997604 0 8355711 
0.314518 -0.0266535 -0.284072 -0.0194741 -0.076301 0.996894 0 8355711 
0.339132 -0.0354995 -0.284136 -0.0186798 -0.0585724 0.998108 0 8355711 
0.370439 -0.0360699 -0.283563 -0.0195998 -0.0584703 0.998097 0 8355711 
0.391751 -0.0313467 -0.28287 -0.0198726 -0.0696288 0.997375 0 8355711 
0.41628 -0.0299737 -0.282281 -0.0222027 -0.0761268 0.996851 0 8355711 
0.440643 -0.0307935 -0.281783 -0.0230053 -0.0835025 0.996242 0 8355711 
0.467492 -0.0341381 -0.281397 -0.0251358 -0.0884715 0.995761 0 8355711 
0.491347 -0.033648 -0.280743 -0.0242213 -0.0980667 0.994885 0 8355711 
0.515163 -0.0326234 -0.279896 -0.0504656 -0.113208 0.992289 0 8355711 
0.537999 -0.0373589 -0.278485 -0.132349 -0.117914 0.984165 0 8355711 
0.552547 -0.0411753 -0.276671 -0.213792 -0.114629 0.970131 0 8355711 
-0.552219 -0.00497732 -0.276859 0.46105 -0.0928074 0.882508 0 8355711 
-0.534698 -0.00172992 -0.284575 0.374878 -0.0968934 0.921997 0 8355711 
-0.510423 -0.00494827 -0.292816 0.238407 -0.0855535 0.96739 0 8355711 
-0.484857 -0.00377693 -0.296956 0.0920475 -0.0865388 0.991987 0 8355711 
-0.463187 -0.00222026 -0.297917 0.0216445 -0.090145 0.995693 0 8355711 
-0.436143 -0.00296545 -0.29813 0.00138445 -0.0906425 0.995883 0 8355711 
-0.413666 -0.00208284 -0.297898 -0.0138103 -0.0910394 0.995752 0 8355711 
-0.384576 -0.00322095 -0.297434 -0.0201534 -0.0891536 0.995814 0 8355711 
-0.355734 -0.00313505 -0.296833 -0.0218294 -0.0880821 0.995874 0 8355711 
-0.331774 -0.00439187 -0.296417 -0.0219143 -0.0846206 0.996172 0 8355711 
-0.308201 -0.00354773 -0.295869 -0.0221238 -0.0863724 0.996017 0 8355711 
-0.2861 -0.00466275 -0.295414 -0.0247275 -0.0878259 0.995829 0 8355711 
-0.261524 -0.00422416 -0.294802 -0.0229751 -0.0916127 0.99553 0 8355711 
-0.233344 -0.00322568 -0.294038 -0.0238551 -0.102973 0.994398 0 8355711 
-0.210479 -0.00497545 -0.293653 -0.025109 -0.100634 0.994607 0 8355711 
-0.185422 -0.00230467 -0.292839 -0.0250534 -0.113774 0.993191 0 8355711 
-0.160417 -0.00393758 -0.292358 -0.024778 -0.114727 0.993088 0 8355711 
-0.135393 -0.00664788 -0.292108 -0.0229233 -0.104456 0.994265 0 8355711 
-0.111136 -0.00470032 -0.291343 -0.023991 -0.122226 0.992212 0 8355711 
-0.0874354 -0.00645127 -0.290973 -0.0235578 -0.116647 0.992894 0 8355711 
-0.0600369 -0.00585544 -0.290297 -0.0216399 -0.125452 0.991864 0 8355711 
-0.0357481 -0.00409756 -0.28949 -0.0222722 -0.141689 0.989661 0 8355711 
-0.00929958 -0.00868716 -0.289403 -0.0234203 -0.123417 0.992078 0 8355711 
0.0168376 -0.0052941 -0.288334 -0.0269229 -0.150425 0.988255 0 8355711 
0.0425912 -0.00812838 -0.288002 -0.0237955 -0.146305 0.988953 0 8355711 
0.0638541 -0.00591139 -0.287241 -0.022196 -0.161378 0.986643 0 8355711 
0.0911219 -0.00861518 -0.287059 -0.0204892 -0.148995 0.988626 0 8355711 
0.11441 -0.00849385 -0.28648 -0.0220783 -0.153687 0.987873 0 8355711 
0.139052 -0.0071785 -0.285754 -0.0233257 -0.163796 0.986218 0 8355711 
0.162232 -0.00827631 -0.285333 -0.0270533 -0.161559 0.986492 0 8355711 
0.188857 -0.00437008 -0.283979 -0.0282849 -0.191462 0.981092 0 8355711 
0.216239 -0.00626686 -0.283526 -0.0247652 -0.185842 0.982267 0 8355711 
0.240698 -0.00682379 -0.283076 -0.0236848 -0.186683 0.982135 0 8355711 
0.266263 -0.00914694 -0.282816 -0.0218683 -0.177358 0.983903 0 8355711 
0.289269 -0.00772578 -0.282104 -0.0199867 -0.192348 0.981123 0 8355711 
0.313303 -0.00621355 -0.281434 -0.0187426 -0.208871 0.977764 0 8355711 
0.338536 -0.00915825 -0.281368 -0.0206548 -0.190711 0.981429 0 8355711 
0.367051 -0.0100688 -0.280875 -0.0257931 -0.189984 0.981448 0 8355711 
0.390925 -0.00860035 -0.279915 -0.0298608 -0.215657 0.976012 0 8355711 
0.41242 -0.00928822 -0.279418 -0.0306152 -0.221755 0.974622 0 8355711 
0.437633 -0.0085224 -0.278463 -0.032727 -0.246863 0.968497 0 8355711 
0.463738 -0.0119931 -0.278341 -0.0370639 -0.229666 0.972563 0 8355711 
0.488602 -0.0135778 -0.277838 -0.0389683 -0.226456 0.973241 0 8355711 
0.515133 -0.0161688 -0.277332 -0.0657153 -0.224097 0.972349 0 8355711 
0.535743 -0.0202143 -0.276219 -0.141692 -0.220057 0.965142 0 8355711 
-0.550006 0.0179043 -0.274651 0.455711 -0.198564 0.867698 0 8355711 
-0.533949 0.0230728 -0.280578 0.371941 -0.236968 0.8975 0 8355711 
-0.51076 0.0218619 -0.288743 0.246515 -0.225851 0.942455 0 8355711 
-0.487826 0.02257 -0.292904 0.11427 -0.22129 0.96849 0 8355711 
-0.462074 0.0224044 -0.294409 0.0220088 -0.213011 0.976802 0 8355711 
-0.433966 0.0218137 -0.294756 -0.00387193 -0.198826 0.980027 0 8355711 
-0.408106 0.0215813 -0.294493 -0.0151298 -0.201115 0.979451 0 8355711 
-0.385267 0.0223539 -0.293949 -0.0220838 -0.20721 0.978047 0 8355711 
-0.35714 0.0236586 -0.292973 -0.0247593 -0.2278 0.973393 0 8355711 
-0.331999 0.0207938 -0.292955 -0.02432 -0.212867 0.976778 0 8355711 
-0.310098 0.0202476 -0.292468 -0.0307093 -0.2198 0.975062 0 8355711 
-0.286575 0.0227056 -0.291119 -0.0329703 -0.254729 0.96645 0 8355711 
-0.259903 0.0184152 -0.291251 -0.0298653 -0.23065 0.972578 0 8355711 
-0.23633 0.0205986 -0.289968 -0.0312407 -0.25947 0.965246 0 8355711 
-0.208993 0.0208219 -0.289006 -0.0316484 -0.271949 0.961791 0 8355711 
-0.185615 0.0193803 -0.288641 -0.0320605 -0.268824 0.962655 0 8355711 
-0.163306 0.018978 -0.287985 -0.0335198 -0.278921 0.959729 0 8355711 
-0.134814 0.0197967 -0.286809 -0.0300647 -0.293272 0.955556 0 8355711 
-0.108643 0.0198439 -0.285949 -0.029579 -0.309765 0.950353 0 8355711 
-0.0835054 0.0216711 -0.284548 -0.0313899 -0.337989 0.940626 0 8355711 
-0.0593194 0.0198119 -0.28438 -0.0300715 -0.330851 0.943204 0 8355711 
-0.0356461 0.0163902 -0.28487 -0.0287011 -0.306667 0.951384 0 8355711 
-0.00949711 0.0194342 -0.28292 -0.0326523 -0.349358 0.93642 0 8355711 
0.0147895 0.0174914 -0.282818 -0.0322971 -0.336945 0.94097 0 8355711 
0.0404272 0.0196215 -0.281238 -0.0329385 -0.366939 0.929662 0 8355711 
0.0653013 0.0174845 -0.281042 -0.0294664 -0.356633 0.93378 0 8355711 
0.0900097 0.0172366 -0.28053 -0.028688 -0.362941 0.931371 0 8355711 
0.116569 0.0156736 -0.280337 -0.0286816 -0.360228 0.932423 0 8355711 
0.139829 0.0140002 -0.280355 -0.0286151 -0.350955 0.935955 0 8355711 
0.165737 0.012317 -0.280116 -0.0310778 -0.34504 0.938073 0 8355711 
0.190244 0.012229 -0.279367 -0.0321703 -0.351401 0.935672 0 8355711 
0.215134 0.0101629 -0.279353 -0.0312724 -0.338233 0.940542 0 8355711 
0.237965 0.0111585 -0.278233 -0.0291893 -0.366452 0.929979 0 8355711 
0.263861 0.00865376 -0.278431 -0.0281061 -0.348841 0.93676 0 8355711 
0.289275 0.00889608 -0.277652 -0.0244663 -0.365579 0.930458 0 8355711 
0.315738 0.00795613 -0.277309 -0.0273603 -0.366984 0.929825 0 8355711 
0.33894 0.00690648 -0.277192 -0.0235655 -0.363355 0.931353 0 8355711 
0.364684 0.00531966 -0.277024 -0.0303698 -0.350463 0.936084 0 8355711 
0.390948 0.00495056 -0.276241 -0.0363216 -0.358707 0.932743 0 8355711 
0.419372 0.0028229 -0.275914 -0.0397784 -0.346822 0.937087 0 8355711 
-0.52849 0.0419645 -0.276341 0.339348 -0.390742 0.855665 0 8355711 
-0.509274 0.0459406 -0.280441 0.227319 -0.434837 0.871345 0 8355711 
-0.484731 0.0458691 -0.285028 0.101811 -0.44001 0.892203 0 8355711 
-0.459671 0.0477939 -0.285565 0.026269 -0.457172 0.88899 0 8355711 
-0.434038 0.0455743 -0.287033 0.000708959 -0.427906 0.903823 0 8355711 
-0.40918 0.0454589 -0.286885 -0.0166912 -0.426858 0.904165 0 8355711 
-0.384411 0.0448875 -0.286599 -0.0284515 -0.425271 0.904619 0 8355711 
-0.360924 0.0462096 -0.284944 -0.0343048 -0.455999 0.889319 0 8355711 
-0.335434 0.0459511 -0.2841 -0.0405 -0.471893 0.880725 0 8355711 
-0.309226 0.0460604 -0.282619 -0.049027 -0.493346 0.86845 0 8355711 
-0.284231 0.0457419 -0.281511 -0.0440538 -0.506394 0.861176 0 8355711 
-0.259662 0.0440741 -0.281279 -0.0408528 -0.502467 0.863631 0 8355711 
-0.23532 0.0432838 -0.280724 -0.0405612 -0.505465 0.861893 0 8355711 
-0.210711 0.0425543 -0.280116 -0.0431223 -0.514184 0.856595 0 8355711 
-0.183838 0.0405207 -0.279867 -0.043771 -0.506871 0.86091 0 8355711 
-0.159811 0.0406048 -0.278768 -0.0408581 -0.523486 0.851054 0 8355711 
-0.134733 0.0389267 -0.278645 -0.0390844 -0.519826 0.853378 0 8355711 
-0.108877 0.0369289 -0.27871 -0.0364628 -0.502865 0.863596 0 8355711 
-0.0855846 0.0375289 -0.277456 -0.0361567 -0.523588 0.851204 0 8355711 
-0.0620924 0.0354264 -0.277733 -0.035452 -0.505926 0.861848 0 8355711 
-0.035255 0.0337933 -0.277552 -0.0358156 -0.496431 0.867337 0 8355711 
-0.00814612 0.0341367 -0.276269 -0.0383029 -0.519628 0.853533 0 8355711 
0.0171636 0.0330658 -0.275798 -0.0336456 -0.514989 0.856536 0 8355711 
0.0420584 0.0304181 -0.276325 -0.0353274 -0.489465 0.871307 0 8355711 
-0.484575 0.0619008 -0.275426 0.0925577 -0.601161 0.79375 0 8355711 
-0.457418 0.0632397 -0.276071 0.0189406 -0.619712 0.7846 0 8355711 
-0.432379 0.0627171 -0.276715 -0.00611562 -0.632247 0.774742 0 8355711 
-0.409482 0.0616726 -0.277153 -0.0220731 -0.635617 0.771689 0 8355711 
-0.387347 0.061102 -0.276811 -0.0311237 -0.642637 0.765538 0 8355711 
-0.36262 0.05983 -0.276736 -0.0396762 -0.641335 0.766234 0 8355711 
-0.332265 0.0591575 -0.275486 -0.0484834 -0.652975 0.755826 0 8355711 
0.592101 -0.253785 -0.273384 -0.284658 -0.708974 0.645234 0 8355711 
0.615592 -0.256624 -0.265682 -0.305254 -0.821589 0.481467 0 8355711 
0.637143 -0.261118 -0.263226 -0.156492 -0.971645 0.177245 0 8355711 
0.664366 -0.26312 -0.259764 -0.0476619 -0.998516 0.026337 0 8355711 
0.682143 -0.26382 -0.274029 -0.0281115 -0.99958 0.00699933 0 8355711 
0.703891 -0.264352 -0.263528 -0.0281651 -0.999585 0.00611205 0 8355711 
0.734861 -0.265212 -0.263732 -0.0263953 -0.999644 0.00392033 0 8355711 
0.765131 -0.265725 -0.265736 0.043923 -0.998995 0.00888565 0 8355711 
-0.71135 -0.224795 -0.262279 -0.0959771 -0.995309 0.0121696 0 8355711 
-0.688665 -0.225897 -0.259782 -0.0393728 -0.999125 0.0141416 0 8355711 
-0.654763 -0.226846 -0.258356 -0.0231085 -0.999609 0.0157358 0 8355711 
-0.632827 -0.227175 -0.256366 0.00952012 -0.998835 0.0473132 0 8355711 
-0.610429 -0.225741 -0.260257 0.192004 -0.944052 0.268142 0 8355711 
-0.589795 -0.222594 -0.266934 0.37483 -0.717239 0.587427 0 8355711 
-0.571456 -0.220179 -0.273801 0.432585 -0.391807 0.812009 0 8355711 
0.569526 -0.237422 -0.27561 -0.286551 -0.137072 0.948209 0 8355711 
0.588843 -0.239586 -0.268627 -0.380339 -0.126887 0.916101 0 8355711 
0.609513 -0.240414 -0.258873 -0.482793 -0.141529 0.864222 0 8355711 
-0.601709 -0.21126 -0.252942 0.646991 -0.0542236 0.760567 0 8355711 
-0.583947 -0.209073 -0.265485 0.546124 -0.0496531 0.836231 0 8355711 
-0.570666 -0.207655 -0.273606 0.497008 -0.0436247 0.866649 0 8355711 
0.571158 -0.215904 -0.274635 -0.289006 0.0121163 0.957251 0 8355711 
0.587155 -0.21193 -0.269055 -0.366049 0.0161781 0.930455 0 8355711 
0.609965 -0.215307 -0.258277 -0.487348 0.0194429 0.872991 0 8355711 
-0.584596 -0.179196 -0.263074 0.56214 -0.0216494 0.826759 0 8355711 
-0.570097 -0.178579 -0.272354 0.493994 -0.0156032 0.869325 0 8355711 
0.569628 -0.187197 -0.275557 -0.279527 0.0134264 0.960044 0 8355711 
0.587929 -0.186596 -0.269258 -0.367307 0.0155003 0.929971 0 8355711 
0.609801 -0.187883 -0.258857 -0.49113 0.0142857 0.870969 0 8355711 
-0.599261 -0.148288 -0.251367 0.644917 -0.0303995 0.763648 0 8355711 
-0.585531 -0.155517 -0.261892 0.573 -0.0220626 0.819259 0 8355711 
-0.569685 -0.155444 -0.272184 0.49912 -0.0161144 0.866383 0 8355711 
0.572334 -0.159184 -0.275098 -0.281485 0.00788744 0.959533 0 8355711 
0.587308 -0.16208 -0.269851 -0.362208 0.0115141 0.932026 0 8355711 
0.612177 -0.161989 -0.257846 -0.507005 0.00889873 0.861897 0 8355711 
-0.587051 -0.125936 -0.259846 0.591495 -0.0226388 0.805991 0 8355711 
-0.568703 -0.124533 -0.272159 0.503161 -0.0163354 0.864038 0 8355711 
0.573237 -0.142681 -0.274924 -0.282725 0.00373522 0.959194 0 8355711 
0.586837 -0.137373 -0.270187 -0.358015 0.00248656 0.933713 0 8355711 
0.611518 -0.134592 -0.258375 -0.510354 -0.006518 0.85994 0 8355711 
-0.599554 -0.103199 -0.249457 0.657099 -0.0225477 0.753467 0 8355711 
-0.586973 -0.104603 -0.259527 0.597863 -0.0189671 0.801374 0 8355711 
-0.56917 -0.0989183 -0.271488 0.512841 -0.01194 0.858401 0 8355711 
0.572649 -0.111272 -0.275059 -0.284141 -0.0104205 0.958726 0 8355711 
0.591305 -0.112271 -0.268366 -0.393626 -0.0208912 0.919033 0 8355711 
0.610004 -0.113267 -0.258789 -0.512925 -0.0329024 0.857803 0 8355711 
-0.588176 -0.0800904 -0.257907 0.610808 -0.0254989 0.791368 0 8355711 
-0.569276 -0.0719574 -0.270923 0.520558 -0.0244861 0.853475 0 8355711 
0.570744 -0.0868205 -0.275051 -0.293931 -0.0358712 0.955153 0 8355711 
0.589108 -0.0854511 -0.267979 -0.401587 -0.0600042 0.913853 0 8355711 
0.610049 -0.0891691 -0.257345 -0.529101 -0.0731675 0.845399 0 8355711 
-0.583042 -0.0533582 -0.260767 0.593957 -0.0427156 0.803362 0 8355711 
-0.569736 -0.0547305 -0.270002 0.527836 -0.0368954 0.848545 0 8355711 
0.569339 -0.0622135 -0.273899 -0.307213 -0.0804015 0.948238 0 8355711 
0.592229 -0.0588026 -0.264066 -0.451074 -0.115027 0.885043 0 8355711 
0.608239 -0.0608524 -0.255176 -0.544964 -0.129951 0.828328 0 8355711 
-0.584219 -0.0288961 -0.258299 0.609048 -0.0603676 0.790832 0 8355711 
-0.565641 -0.028227 -0.271123 0.517143 -0.0523316 0.854297 0 8355711 
0.549942 -0.0292887 -0.275504 -0.216161 -0.170953 0.961275 0 8355711 
0.565037 -0.0356488 -0.272141 -0.30939 -0.160716 0.937255 0 8355711 
0.589209 -0.0370752 -0.261941 -0.459719 -0.186076 0.868351 0 8355711 
0.605511 -0.0424339 -0.253657 -0.550876 -0.176713 0.815664 0 8355711 
-0.581578 -0.00410457 -0.257899 0.605097 -0.10627 0.789027 0 8355711 
-0.563987 -0.00167555 -0.26981 0.519476 -0.108013 0.847631 0 8355711 
0.467004 0.000512904 -0.274666 -0.042079 -0.347559 0.936714 0 8355711 
0.492443 -0.00198693 -0.274367 -0.045024 -0.342517 0.938432 0 8355711 
0.51764 -0.00425986 -0.273578 -0.085839 -0.350261 0.932711 0 8355711 
0.541723 -0.00800246 -0.271267 -0.194031 -0.342908 0.919112 0 8355711 
0.564046 -0.0111269 -0.265878 -0.3281 -0.343989 0.879785 0 8355711 
0.586595 -0.0134596 -0.256455 -0.461061 -0.341291 0.819111 0 8355711 
-0.579913 0.0222992 -0.25384 0.598923 -0.234415 0.765729 0 8355711 
-0.562232 0.023362 -0.265838 0.514369 -0.245873 0.821566 0 8355711 
0.124928 0.028937 -0.27386 -0.0332413 -0.517547 0.855009 0 8355711 
0.13912 0.0279531 -0.273901 -0.0364454 -0.519304 0.853812 0 8355711 
0.164983 0.0260348 -0.273928 -0.0368254 -0.5158 0.855917 0 8355711 
0.192162 0.0257613 -0.272891 -0.0366295 -0.526255 0.849537 0 8355711 
0.213709 0.0245772 -0.272639 -0.0394917 -0.521933 0.852072 0 8355711 
0.239488 0.0232198 -0.272246 -0.0377092 -0.520403 0.853088 0 8355711 
0.265863 0.0227132 -0.27137 -0.0353562 -0.534647 0.844335 0 8355711 
0.290089 0.0211619 -0.271414 -0.0285446 -0.527896 0.848829 0 8355711 
0.314544 0.0210135 -0.27063 -0.028859 -0.534168 0.844885 0 8355711 
0.337937 0.0195798 -0.270663 -0.0292148 -0.52733 0.849158 0 8355711 
0.36277 0.0190427 -0.270059 -0.0349162 -0.533501 0.845079 0 8355711 
0.389569 0.0180752 -0.269329 -0.0389618 -0.532872 0.845299 0 8355711 
0.415412 0.0171101 -0.268618 -0.0427791 -0.530943 0.846327 0 8355711 
0.440461 0.0164515 -0.267643 -0.0462285 -0.533925 0.844267 0 8355711 
0.465519 0.0151805 -0.267043 -0.047944 -0.531078 0.845966 0 8355711 
0.490374 0.0160022 -0.264944 -0.059397 -0.559807 0.826492 0 8355711 
0.514475 0.0149566 -0.263452 -0.0989043 -0.567225 0.817603 0 8355711 
0.537221 0.0136071 -0.260421 -0.193788 -0.58054 0.790835 0 8355711 
0.559166 0.00868933 -0.257406 -0.30241 -0.546338 0.781065 0 8355711 
0.577966 0.00221496 -0.253442 -0.40488 -0.486039 0.774492 0 8355711 
-0.577218 0.0371641 -0.250677 0.573183 -0.342873 0.744244 0 8355711 
-0.558701 0.0449923 -0.259165 0.483497 -0.411879 0.77239 0 8355711 
-0.538252 0.0485928 -0.268543 0.384555 -0.443562 0.809549 0 8355711 
-0.520142 0.0581086 -0.270604 0.265838 -0.5422 0.797088 0 8355711 
-0.255273 0.0559986 -0.273036 -0.0486386 -0.656919 0.752391 0 8355711 
-0.238039 0.05478 -0.273077 -0.0449725 -0.652626 0.756344 0 8355711 
-0.207957 0.0539696 -0.271803 -0.0497842 -0.660448 0.74922 0 8355711 
-0.182991 0.0523043 -0.271594 -0.0494269 -0.656189 0.752976 0 8355711 
-0.15865 0.052176 -0.270103 -0.0475858 -0.667516 0.743074 0 8355711 
-0.133895 0.0500576 -0.270452 -0.0434747 -0.65771 0.752015 0 8355711 
-0.109528 0.0504912 -0.268578 -0.0419326 -0.680531 0.731518 0 8355711 
-0.0870854 0.0490486 -0.268683 -0.040361 -0.675417 0.73633 0 8355711 
-0.0590977 0.0483105 -0.267685 -0.0410975 -0.684116 0.728215 0 8355711 
-0.0314883 0.0468418 -0.267478 -0.0399515 -0.681145 0.731057 0 8355711 
-0.00846078 0.0468634 -0.266005 -0.0418813 -0.695301 0.717497 0 8355711 
0.0151804 0.045084 -0.266357 -0.0412447 -0.684298 0.728035 0 8355711 
0.0396723 0.0448484 -0.265007 -0.0401138 -0.697555 0.715407 0 8355711 
0.0661194 0.0447493 -0.263501 -0.0405537 -0.713957 0.699015 0 8355711 
0.0922833 0.0428233 -0.263818 -0.0410192 -0.703279 0.70973 0 8355711 
0.116961 0.0416928 -0.263391 -0.0438147 -0.703851 0.708995 0 8355711 
0.140522 0.0421131 -0.261708 -0.0465925 -0.724368 0.687838 0 8355711 
0.164383 0.0403573 -0.262013 -0.0440808 -0.715109 0.697622 0 8355711 
0.188515 0.0387273 -0.262194 -0.0427566 -0.707818 0.705099 0 8355711 
0.215324 0.0393582 -0.260032 -0.0442662 -0.731153 0.680776 0 8355711 
0.242386 0.037081 -0.260555 -0.0448277 -0.716896 0.695738 0 8355711 
0.266216 0.0382827 -0.257833 -0.0428813 -0.744576 0.666159 0 8355711 
0.290831 0.0367806 -0.25809 -0.032879 -0.737657 0.674374 0 8355711 
0.31444 0.0360703 -0.257757 -0.0324934 -0.74069 0.671061 0 8355711 
0.338534 0.0357938 -0.256975 -0.0338675 -0.745871 0.665229 0 8355711 
0.365575 0.0340166 -0.257418 -0.039323 -0.73476 0.677186 0 8355711 
0.390757 0.0347059 -0.255285 -0.0399803 -0.753125 0.656661 0 8355711 
0.414846 0.0329147 -0.255801 -0.0438489 -0.73816 0.673199 0 8355711 
0.437466 0.0316797 -0.255632 -0.0489355 -0.731091 0.680522 0 8355711 
0.46557 0.0312615 -0.25411 -0.0521171 -0.738367 0.672383 0 8355711 
0.488321 0.0300954 -0.253495 -0.0607276 -0.735159 0.675169 0 8355711 
0.511533 0.0287775 -0.252451 -0.0964651 -0.732533 0.673862 0 8355711 
0.52932 0.0275249 -0.250666 -0.158445 -0.729158 0.66575 0 8355711 
-0.553021 0.0611165 -0.252669 0.425859 -0.556977 0.713036 0 8355711 
-0.534074 0.0678805 -0.256741 0.323798 -0.64092 0.695971 0 8355711 
-0.50955 0.0727047 -0.260591 0.183125 -0.709966 0.680011 0 8355711 
-0.483639 0.0748752 -0.263359 0.0696617 -0.744559 0.663912 0 8355711 
-0.459417 0.0757396 -0.263514 0.002172 -0.772168 0.635415 0 8355711 
-0.434469 0.0742806 -0.264872 -0.0233347 -0.773616 0.633224 0 8355711 
-0.408975 0.0747165 -0.262717 -0.0384484 -0.804868 0.592207 0 8355711 
-0.383382 0.073301 -0.26282 -0.0441765 -0.807396 0.588354 0 8355711 
-0.358799 0.0720226 -0.262576 -0.0491553 -0.809343 0.585276 0 8355711 
-0.333562 0.0706643 -0.262348 -0.0499843 -0.806712 0.588827 0 8355711 
-0.30865 0.0684379 -0.263098 -0.0533743 -0.792167 0.607966 0 8355711 
-0.285227 0.0664714 -0.263496 -0.0530574 -0.780234 0.623233 0 8355711 
-0.261086 0.0663919 -0.261764 -0.0511919 -0.793228 0.606769 0 8355711 
-0.234438 0.065458 -0.260754 -0.050243 -0.798562 0.599812 0 8355711 
-0.210803 0.0644741 -0.260225 -0.050108 -0.798195 0.600311 0 8355711 
-0.184307 0.0631828 -0.259738 -0.050673 -0.795129 0.60432 0 8355711 
-0.160484 0.0632124 -0.257847 -0.0510259 -0.808376 0.586451 0 8355711 
-0.134092 0.0612443 -0.258301 -0.0498602 -0.799709 0.598313 0 8355711 
-0.11136 0.0621693 -0.255102 -0.0492985 -0.828066 0.55846 0 8355711 
-0.0849867 0.0606008 -0.255179 -0.0473456 -0.828123 0.558543 0 8355711 
-0.05983 0.0593562 -0.254894 -0.0454303 -0.828237 0.558533 0 8355711 
-0.0337908 0.0582168 -0.254532 -0.0461838 -0.82864 0.557873 0 8355711 
-0.00949325 0.0581878 -0.252546 -0.0469564 -0.847007 0.529503 0 8355711 
0.0147998 0.0564919 -0.253142 -0.0458497 -0.84149 0.538324 0 8355711 
0.0370674 0.0563365 -0.251583 -0.0440932 -0.849453 0.525819 0 8355711 
0.0613586 0.0549455 -0.251759 -0.0444795 -0.846668 0.53026 0 8355711 
-0.497207 0.0835825 -0.250742 0.0950506 -0.843386 0.528835 0 8355711 
-0.48253 0.0846742 -0.250491 0.0342483 -0.869164 0.493336 0 8355711 
-0.459045 0.0845187 -0.250882 -0.0182492 -0.885077 0.465087 0 8355711 
-0.431777 0.0832049 -0.251652 -0.0443014 -0.890946 0.451943 0 8355711 
-0.414559 0.0828303 -0.250669 -0.0382398 -0.894562 0.445305 0 8355711 
0.640544 -0.255815 -0.245173 -0.45007 -0.724884 0.521518 0 8355711 
0.660413 -0.26067 -0.238481 -0.26073 -0.936268 0.23542 0 8355711 
0.681699 -0.26346 -0.235395 -0.0560231 -0.998127 0.024561 0 8355711 
0.714838 -0.264706 -0.240987 -0.0275539 -0.99961 0.00463288 0 8355711 
0.735327 -0.265209 -0.240615 -0.0140891 -0.999899 -0.00197383 0 8355711 
0.764268 -0.265598 -0.240965 0.0278627 -0.999489 0.0156924 0 8355711 
-0.710515 -0.224452 -0.236964 -0.116571 -0.993103 0.0125773 0 8355711 
-0.686482 -0.225629 -0.235002 -0.0327465 -0.99942 0.00930711 0 8355711 
-0.657263 -0.226343 -0.23503 -0.00249299 -0.999554 0.0297575 0 8355711 
-0.633582 -0.224528 -0.236054 0.258634 -0.934036 0.246345 0 8355711 
-0.6177 -0.22191 -0.244002 0.443034 -0.761424 0.473238 0 8355711 
0.622778 -0.238131 -0.250523 -0.561872 -0.0830386 0.823046 0 8355711 
0.638309 -0.242495 -0.239063 -0.632318 -0.163348 0.757292 0 8355711 
-0.62631 -0.206952 -0.227399 0.783511 -0.0875778 0.615175 0 8355711 
-0.61466 -0.206592 -0.24015 0.718748 -0.0643031 0.69229 0 8355711 
0.622891 -0.209024 -0.250539 -0.563968 0.0168974 0.825624 0 8355711 
0.639709 -0.212974 -0.237367 -0.651611 0.0131149 0.75844 0 8355711 
-0.625657 -0.178369 -0.225807 0.783964 -0.0401157 0.619509 0 8355711 
-0.614204 -0.177745 -0.238451 0.716182 -0.0294558 0.697292 0 8355711 
0.623074 -0.17794 -0.250872 -0.568375 0.0115072 0.822689 0 8355711 
0.637256 -0.187975 -0.239676 -0.641132 0.00807386 0.767389 0 8355711 
-0.614016 -0.154791 -0.237633 0.722684 -0.0331754 0.690382 0 8355711 
0.623074 -0.167812 -0.250991 -0.570059 0.00519163 0.821587 0 8355711 
0.638676 -0.161052 -0.238625 -0.65244 -0.000862638 0.75784 0 8355711 
0.651548 -0.160415 -0.226873 -0.715669 -0.00959429 0.698373 0 8355711 
-0.613691 -0.13082 -0.236547 0.728557 -0.0327434 0.684202 0 8355711 
0.638212 -0.136117 -0.238648 -0.661458 -0.0244077 0.749584 0 8355711 
-0.613089 -0.103455 -0.236241 0.730185 -0.0262424 0.682746 0 8355711 
0.625381 -0.10764 -0.248231 -0.608118 -0.0495692 0.792297 0 8355711 
0.637608 -0.110617 -0.237885 -0.67206 -0.0577267 0.738243 0 8355711 
-0.613227 -0.0788276 -0.234937 0.736991 -0.0332954 0.675082 0 8355711 
0.621377 -0.0860239 -0.249282 -0.602095 -0.0915703 0.793156 0 8355711 
0.636419 -0.0866396 -0.236474 -0.679743 -0.103761 0.726073 0 8355711 
-0.611248 -0.0542235 -0.235632 0.731866 -0.0509942 0.679538 0 8355711 
0.620728 -0.0602253 -0.245828 -0.619252 -0.144102 0.771856 0 8355711 
0.635363 -0.0595446 -0.23263 -0.695116 -0.157334 0.70147 0 8355711 
-0.607575 -0.0302069 -0.237395 0.719886 -0.0676027 0.690793 0 8355711 
0.617495 -0.0354438 -0.242551 -0.620099 -0.223275 0.75208 0 8355711 
0.631412 -0.0352641 -0.230042 -0.690168 -0.233882 0.684812 0 8355711 
-0.607675 -0.00226569 -0.233964 0.729065 -0.117237 0.674329 0 8355711 
-0.594916 0.00173987 -0.246076 0.665455 -0.126372 0.735663 0 8355711 
0.597206 -0.00686499 -0.246765 -0.515165 -0.405526 0.755085 0 8355711 
0.612674 -0.0118547 -0.237387 -0.598822 -0.364828 0.712961 0 8355711 
-0.604926 0.0215832 -0.231053 0.719166 -0.23155 0.655123 0 8355711 
-0.592376 0.0237377 -0.242945 0.65474 -0.242184 0.716004 0 8355711 
0.545825 0.0252359 -0.248175 -0.230199 -0.704204 0.671644 0 8355711 
0.569123 0.0173223 -0.245941 -0.342323 -0.635426 0.692133 0 8355711 
0.589039 0.0132294 -0.238026 -0.444123 -0.593963 0.670793 0 8355711 
0.606404 0.00674477 -0.23097 -0.541676 -0.527798 0.65423 0 8355711 
-0.602135 0.0393635 -0.22628 0.69577 -0.361217 0.620827 0 8355711 
-0.586988 0.046302 -0.23688 0.612317 -0.419827 0.669935 0 8355711 
-0.570055 0.0540515 -0.246414 0.526267 -0.482026 0.700495 0 8355711 
0.126163 0.0532596 -0.24871 -0.049901 -0.864016 0.500985 0 8355711 
0.14236 0.0526905 -0.24825 -0.0486285 -0.860414 0.507271 0 8355711 
0.166662 0.0516758 -0.247676 -0.0470228 -0.861531 0.505522 0 8355711 
0.189664 0.0510246 -0.246641 -0.0453296 -0.86365 0.50205 0 8355711 
0.214818 0.0496946 -0.246474 -0.0486457 -0.865588 0.498388 0 8355711 
0.241613 0.0493539 -0.244415 -0.0456093 -0.873134 0.485342 0 8355711 
0.267306 0.0496754 -0.241504 -0.0422015 -0.888141 0.457629 0 8355711 
0.291795 0.0487175 -0.240952 -0.0395192 -0.888407 0.457353 0 8355711 
0.31589 0.0481627 -0.2399 -0.0395773 -0.895683 0.44293 0 8355711 
0.340185 0.0468206 -0.240516 -0.0375715 -0.890793 0.452854 0 8355711 
0.365065 0.0470485 -0.237413 -0.0410312 -0.904918 0.423603 0 8355711 
0.390888 0.045077 -0.239185 -0.0415074 -0.893785 0.446571 0 8355711 
0.414677 0.0442996 -0.23841 -0.0431282 -0.895988 0.44198 0 8355711 
0.4393 0.0426797 -0.23937 -0.0454005 -0.885923 0.461606 0 8355711 
0.463863 0.0418105 -0.238485 -0.0491701 -0.885227 0.462554 0 8355711 
0.489986 0.0394306 -0.239911 -0.0587674 -0.86589 0.496771 0 8355711 
0.516455 0.0373605 -0.239455 -0.0976657 -0.850747 0.516421 0 8355711 
0.540021 0.0343429 -0.238335 -0.180405 -0.81186 0.555282 0 8355711 
0.563041 0.0309666 -0.233978 -0.280758 -0.766864 0.577143 0 8355711 
0.580026 0.0285686 -0.227987 -0.360732 -0.733847 0.575622 0 8355711 
-0.57802 0.065409 -0.230276 0.535771 -0.590702 0.603341 0 8355711 
