# .PCD v.7 - Point Cloud Data file format
VERSION .7
FIELDS x y z normal_x normal_y normal_z curvature point2plane-deviation point2plane-distance distance default
SIZE 4 4 4 4 4 4 4 4 4 4 4
TYPE F F F F F F F F F F F
COUNT 1 1 1 1 1 1 1 1 1 1 1
WIDTH 453
HEIGHT 1
VIEWPOINT 0 0 0 1 0 0 0
POINTS 453
DATA ascii
-0.599245 0.0926577 0.14936 0.487845 -0.824966 -0.285374 0 -0.013504 0.013504 0.0141818 -0.013504 
-0.593439 0.0955228 0.150301 0.425808 -0.863434 -0.270499 0 -0.0145779 0.0145779 0.0149819 -0.0145779 
0.692953 -0.11089 0.151189 -0.980145 -0.1259 -0.153183 0 9.7591e-05 9.7591e-05 0.00304657 9.7591e-05 
0.687463 -0.0799798 0.157077 -0.970218 -0.178188 -0.164092 0 0.00104402 0.00104402 0.00369805 0.00104402 
0.685504 -0.0698303 0.157674 -0.965055 -0.204584 -0.163748 0 0.00178079 0.00178079 0.00448162 0.00178079 
0.684451 -0.0633173 0.155319 -0.964037 -0.218349 -0.151511 0 0.0020861 0.0020861 0.00302927 0.0020861 
0.683686 -0.0565144 0.150717 -0.964743 -0.226276 -0.134424 0 0.00227348 0.00227348 0.00619792 0.00227348 
0.682354 -0.0535208 0.154989 -0.961304 -0.229001 -0.153145 0 0.00238167 0.00238167 0.00361248 0.00238167 
0.68082 -0.0440897 0.150512 -0.960386 -0.242216 -0.137805 0 0.00296487 0.00296487 0.00555653 0.00296487 
0.676969 -0.0334951 0.157399 -0.946485 -0.274532 -0.169699 0 0.00349926 0.00349926 0.00560124 0.00349926 
-0.641317 0.0352908 0.152384 0.894185 -0.307924 -0.324986 0 0.00102888 0.00102888 0.00292683 0.00102888 
-0.639428 0.0430424 0.149495 0.878718 -0.366896 -0.305355 0 -6.92122e-05 6.92122e-05 0.00618632 -6.92122e-05 
-0.633906 0.0500977 0.155281 0.840641 -0.422991 -0.338234 0 -0.00103523 0.00103523 0.00239994 -0.00103523 
-0.632014 0.0571558 0.150505 0.830376 -0.461873 -0.311688 0 -0.00192002 0.00192002 0.00322677 -0.00192002 
-0.62684 0.0646929 0.151854 0.790258 -0.518071 -0.327253 0 -0.00355516 0.00355516 0.00362453 -0.00355516 
0.407072 0.0654118 0.15331 -0.0334537 -0.995777 -0.0854946 0 -0.0232371 0.0232371 0.0234485 -0.0232371 
0.355346 0.0676735 0.14702 -0.0226116 -0.996963 -0.0745265 0 -0.022679 0.022679 0.0231608 -0.022679 
0.369556 0.0669955 0.151661 -0.0258666 -0.995915 -0.0865092 0 -0.0224577 0.0224577 0.0229365 -0.0224577 
0.378403 0.06695 0.148235 -0.0314505 -0.996923 -0.0717996 0 -0.0229313 0.0229313 0.0234443 -0.0229313 
0.393424 0.0659285 0.15324 -0.0316073 -0.996341 -0.0794055 0 -0.0234103 0.0234103 0.0234775 -0.0234103 
0.335943 0.0676479 0.154502 -0.0192075 -0.996959 -0.0755215 0 -0.0226418 0.0226418 0.0228618 -0.0226418 
0.315342 0.0685185 0.154501 -0.031471 -0.995438 -0.090066 0 -0.0229884 0.0229884 0.0231611 -0.0229884 
-0.657804 -0.140873 0.153415 0.935892 -0.0578527 -0.347506 0 -0.000571116 0.000571116 0.00245534 -0.000571116 
0.695606 -0.136042 0.151799 -0.977746 -0.113946 -0.176153 0 -0.000188287 0.000188287 0.00513877 -0.000188287 
0.693347 -0.118413 0.153931 -0.978313 -0.114525 -0.172593 0 1.43935e-05 1.43935e-05 0.00366829 1.43935e-05 
0.691757 -0.108962 0.156906 -0.976288 -0.123481 -0.177806 0 0.000310239 0.000310239 0.00391173 0.000310239 
0.690888 -0.100804 0.156077 -0.975322 -0.14112 -0.1698 0 0.000434086 0.000434086 0.00212461 0.000434086 
0.690288 -0.0922236 0.15189 -0.976838 -0.15921 -0.14297 0 0.000336384 0.000336384 0.00238817 0.000336384 
-0.647927 -9.94536e-05 0.155936 0.929073 -0.124577 -0.348288 0 0.00171804 0.00171804 0.00324284 0.00171804 
-0.645348 0.0184027 0.154417 0.918626 -0.196692 -0.342694 0 0.00205234 0.00205234 0.00243872 0.00205234 
-0.644475 0.0260523 0.151593 0.912103 -0.249163 -0.325556 0 0.00181617 0.00181617 0.00395311 0.00181617 
0.274463 0.0695906 0.156585 -0.0253919 -0.996174 -0.0836219 0 -0.0217055 0.0217055 0.0220907 -0.0217055 
0.286319 0.0696475 0.151173 -0.0246393 -0.996692 -0.0774505 0 -0.0215972 0.0215972 0.0216813 -0.0215972 
0.229064 0.0712554 0.153804 -0.0288441 -0.995086 -0.0947211 0 -0.0218126 0.0218126 0.0224579 -0.0218126 
0.258393 0.0705563 0.150833 -0.0222169 -0.996224 -0.0839349 0 -0.0227772 0.0227772 0.0236336 -0.0227772 
0.24323 0.0709853 0.15057 -0.0237134 -0.996084 -0.0851682 0 -0.022331 0.022331 0.0225249 -0.022331 
0.194736 0.0720003 0.157425 -0.0243046 -0.994415 -0.102703 0 -0.0227908 0.0227908 0.0231227 -0.0227908 
0.185536 0.0731751 0.149264 -0.0254131 -0.9953 -0.0934462 0 -0.0223597 0.0223597 0.0228772 -0.0223597 
0.214315 0.07166 0.15407 -0.0256824 -0.995236 -0.0940555 0 -0.0238585 0.0238585 0.0238653 -0.0238585 
0.702264 -0.20501 0.151293 -0.972533 -0.0715036 -0.221511 0 -0.00848866 0.00848866 0.0101919 -0.00848866 
0.700182 -0.18844 0.154873 -0.96827 -0.0895838 -0.233299 0 -0.000679931 0.000679931 0.00194726 -0.000679931 
0.699409 -0.177568 0.154111 -0.971662 -0.0954107 -0.216265 0 0.00177789 0.00177789 0.00483372 0.00177789 
0.699337 -0.170959 0.151692 -0.973942 -0.100925 -0.203103 0 0.00120282 0.00120282 0.00450035 0.00120282 
0.697262 -0.159928 0.156238 -0.971184 -0.107642 -0.212637 0 0.000814325 0.000814325 0.00229505 0.000814325 
-0.657681 -0.14829 0.155063 0.936011 -0.059211 -0.346954 0 -0.000373857 0.000373857 0.00475484 -0.000373857 
0.696008 -0.146872 0.155757 -0.9733 -0.11062 -0.201125 0 0.000340126 0.000340126 0.00493553 0.000340126 
-0.650912 -0.0532454 0.159492 0.92884 -0.0483481 -0.367312 0 1.80084e-05 1.80084e-05 0.00380739 1.80084e-05 
-0.650024 -0.0442319 0.160429 0.926227 -0.0533822 -0.373168 0 9.42857e-05 9.42857e-05 0.00513668 9.42857e-05 
-0.651906 -0.0355145 0.154097 0.93834 -0.0614836 -0.340203 0 0.00056608 0.00056608 0.00305058 0.00056608 
-0.649347 -0.0259186 0.159033 0.928528 -0.0682093 -0.364942 0 0.000541918 0.000541918 0.00474856 0.000541918 
-0.650486 -0.0107749 0.152457 0.93867 -0.0955577 -0.331313 0 0.00160072 0.00160072 0.00408998 0.00160072 
0.182521 0.0724047 0.156018 -0.0323292 -0.994192 -0.102646 0 -0.0227946 0.0227946 0.0230076 -0.0227946 
0.137284 0.0743722 0.15232 -0.0263737 -0.996178 -0.0832694 0 -0.0224361 0.0224361 0.0226587 -0.0224361 
0.148257 0.0744926 0.150902 -0.00403003 -0.998084 -0.0617404 0 -0.0221511 0.0221511 0.0226293 -0.0221511 
0.163549 0.0735717 0.152408 -0.034644 -0.995456 -0.0886943 0 -0.0228087 0.0228087 0.0228744 -0.0228087 
0.109383 0.0752997 0.154365 -0.0269449 -0.994692 -0.0993045 0 -0.0221478 0.0221478 0.0227569 -0.0221478 
0.0854527 0.0760639 0.155292 -0.0267794 -0.996412 -0.0802853 0 -0.0232466 0.0232466 0.0232868 -0.0232466 
0.0950078 0.0761019 0.15128 -0.0280189 -0.996233 -0.0820721 0 -0.0231404 0.0231404 0.0233394 -0.0231404 
-0.299544 0.091087 0.15507 -0.0376255 -0.996321 -0.0770023 0 -0.0210264 0.0210264 0.0214914 -0.0210264 
-0.581592 0.0995624 0.15275 0.310404 -0.916261 -0.253211 0 -0.0164493 0.0164493 0.0169403 -0.0164493 
0.701969 -0.214964 0.15495 -0.965914 -0.0660932 -0.250285 0 -0.0156092 0.0156092 0.0157028 -0.0156092 
0.701092 -0.200112 0.154861 -0.967843 -0.0762497 -0.239722 0 -0.00603437 0.00603437 0.0082879 -0.00603437 
-0.659522 -0.165379 0.152845 0.936967 -0.0437782 -0.346665 0 -0.000283855 0.000283855 0.00432319 -0.000283855 
-0.653511 -0.0994698 0.158378 0.930963 -0.0361484 -0.363319 0 -0.00146046 0.00146046 0.00442619 -0.00146046 
-0.654111 -0.0892642 0.155723 0.93579 -0.0336909 -0.350944 0 -0.000710027 0.000710027 0.00393154 -0.000710027 
-0.653381 -0.0802661 0.15667 0.934202 -0.0370119 -0.354819 0 -0.000594976 0.000594976 0.00289457 -0.000594976 
-0.652596 -0.071263 0.157613 0.932452 -0.0419915 -0.358846 0 -0.000262822 0.000262822 0.00236028 -0.000262822 
-0.652524 -0.0630134 0.156718 0.933565 -0.0447016 -0.355609 0 -0.000171398 0.000171398 0.00074443 -0.000171398 
0.173375 0.0725916 0.158879 -0.0318858 -0.993235 -0.111662 0 -0.0225798 0.0225798 0.023047 -0.0225798 
0.062746 0.0769258 0.154352 -0.0277918 -0.995995 -0.0849815 0 -0.0229417 0.0229417 0.0230192 -0.0229417 
0.0134759 0.0787725 0.155798 -0.0219659 -0.996368 -0.0822711 0 -0.0226242 0.0226242 0.0226617 -0.0226242 
0.028936 0.0779891 0.156188 -0.0383266 -0.996211 -0.0780699 0 -0.0232008 0.0232008 0.0235719 -0.0232008 
-0.0158298 0.0801843 0.152384 -0.0358112 -0.995936 -0.0826432 0 -0.0230102 0.0230102 0.0232266 -0.0230102 
0.000250244 0.0789512 0.153971 -0.0273843 -0.996288 -0.0816114 0 -0.0235732 0.0235732 0.0239426 -0.0235732 
-0.0286886 0.080302 0.156164 -0.0237005 -0.996528 -0.0798145 0 -0.0230741 0.0230741 0.0233856 -0.0230741 
-0.655592 -0.132597 0.157779 0.930399 -0.0574948 -0.362011 0 -0.00114778 0.00114778 0.00137321 -0.00114778 
-0.656056 -0.120959 0.154596 0.934884 -0.053325 -0.350924 0 -0.0011393 0.0011393 0.00342605 -0.0011393 
-0.655284 -0.110538 0.155025 0.933646 -0.0456105 -0.355281 0 -0.00149851 0.00149851 0.00338406 -0.00149851 
-0.647374 -0.00773948 0.159781 0.923869 -0.101767 -0.368931 0 0.00111599 0.00111599 0.00529493 0.00111599 
-0.636126 0.0432565 0.157843 0.860478 -0.370161 -0.350084 0 -0.000187179 0.000187179 0.00363703 -0.000187179 
-0.116802 0.0839947 0.153839 -0.00660197 -0.99843 -0.0556158 0 -0.0219283 0.0219283 0.0221371 -0.0219283 
-0.106941 0.0827252 0.160413 -0.0451414 -0.995486 -0.0834849 0 -0.0223151 0.0223151 0.0227369 -0.0223151 
-0.140595 0.0835121 0.158936 -0.00674099 -0.994318 -0.106235 0 -0.0229 0.0229 0.0234579 -0.0229 
-0.132867 0.0838586 0.154341 -0.0206414 -0.997135 -0.0727658 0 -0.02276 0.02276 0.0229334 -0.02276 
-0.124813 0.0837336 0.154156 0.0140425 -0.999166 -0.0383464 0 -0.0227831 0.0227831 0.0228738 -0.0227831 
-0.672841 -0.219487 0.154915 0.385699 -0.912462 -0.136561 0 -0.0178414 0.0178414 0.0183068 -0.0178414 
-0.660334 -0.201135 0.156376 0.929038 -0.098456 -0.356645 0 -0.0102827 0.0102827 0.010399 -0.0102827 
-0.659808 -0.195677 0.15649 0.928591 -0.0727376 -0.363905 0 -0.00749673 0.00749673 0.00785892 -0.00749673 
-0.657578 -0.182331 0.160066 0.926268 -0.0440684 -0.37428 0 -0.00296436 0.00296436 0.00468353 -0.00296436 
-0.659834 -0.175412 0.153332 0.936535 -0.0421033 -0.348037 0 -0.00154716 0.00154716 0.00565945 -0.00154716 
-0.657096 -0.169579 0.159641 0.927484 -0.0423847 -0.371453 0 -0.00118337 0.00118337 0.00254583 -0.00118337 
-0.656465 -0.158699 0.159905 0.926291 -0.0471668 -0.373845 0 -0.000326023 0.000326023 0.00481407 -0.000326023 
-0.20128 0.0866631 0.159506 -0.0323488 -0.996657 -0.0750209 0 -0.0208954 0.0208954 0.0213794 -0.0208954 
-0.18594 0.0863888 0.154916 -0.0488782 -0.9957 -0.0786944 0 -0.0214169 0.0214169 0.0215014 -0.0214169 
-0.172059 0.0855919 0.154278 -0.0626952 -0.994594 -0.0827757 0 -0.021984 0.021984 0.0223218 -0.021984 
-0.235425 0.0883629 0.153721 -0.041057 -0.996077 -0.0783875 0 -0.0209618 0.0209618 0.0212379 -0.0209618 
-0.271463 0.0897577 0.157163 -0.0242146 -0.996263 -0.0829122 0 -0.0208957 0.0208957 0.0213001 -0.0208957 
-0.690387 -0.2217 0.160485 -0.00723642 -0.999949 0.00701766 0 -0.0140429 0.0140429 0.0155017 -0.0140429 
-0.672496 -0.220071 0.15938 0.32821 -0.936084 -0.126587 0 -0.0177332 0.0177332 0.018528 -0.0177332 
-0.353529 0.0925573 0.159504 -0.0374144 -0.996651 -0.0727101 0 -0.0218941 0.0218941 0.0220655 -0.0218941 
-0.371578 0.0935288 0.161133 -0.0532458 -0.996255 -0.0681182 0 -0.0213908 0.0213908 0.0219805 -0.0213908 
0.598751 0.0571517 0.154124 -0.231501 -0.962999 -0.137986 0 -0.0147571 0.0147571 0.0154026 -0.0147571 
0.566272 0.0608286 0.155822 -0.0185241 -0.995569 -0.0921944 0 -0.019314 0.019314 0.0198779 -0.019314 
-0.395122 0.095258 0.154898 -0.0506631 -0.997251 -0.0540774 0 -0.0214962 0.0214962 0.0217368 -0.0214962 
-0.423975 0.0973611 0.157611 -0.0689605 -0.994247 -0.0819547 0 -0.0205525 0.0205525 0.0206133 -0.0205525 
-0.41686 0.0967026 0.157649 -0.0819536 -0.994347 -0.0675153 0 -0.02089 0.02089 0.0209573 -0.02089 
-0.448265 0.0986673 0.157685 -0.0478182 -0.995268 -0.0845928 0 -0.0201227 0.0201227 0.0203848 -0.0201227 
-0.431643 0.0978609 0.156578 -0.0465126 -0.995435 -0.0833417 0 -0.0204146 0.0204146 0.0208066 -0.0204146 
-0.504501 0.10256 0.154251 -0.0561443 -0.994332 -0.0902897 0 -0.017984 0.017984 0.0186302 -0.017984 
-0.462811 0.0989936 0.162908 -0.0539427 -0.994305 -0.091909 0 -0.0198833 0.0198833 0.0204647 -0.0198833 
0.69924 -0.195544 0.160695 -0.959004 -0.0780922 -0.27242 0 -0.00378598 0.00378598 0.00417774 -0.00378598 
0.692749 -0.12467 0.1605 -0.973122 -0.107112 -0.203867 0 -0.00020254 0.00020254 0.00299054 -0.00020254 
0.637191 0.0360841 0.161824 -0.639273 -0.737138 -0.218994 0 -0.00309181 0.00309181 0.00339835 -0.00309181 
0.630877 0.0414701 0.161091 -0.574489 -0.791187 -0.209729 0 -0.00530994 0.00530994 0.00532296 -0.00530994 
0.626309 0.0454032 0.157638 -0.510492 -0.837521 -0.194824 0 -0.00717702 0.00717702 0.0077372 -0.00717702 
0.622183 0.0474624 0.159139 -0.466711 -0.863127 -0.192854 0 -0.00865497 0.00865497 0.00947904 -0.00865497 
0.615533 0.0514759 0.155736 -0.378479 -0.908922 -0.17497 0 -0.010469 0.010469 0.011216 -0.010469 
0.609809 0.0523725 0.16197 -0.328748 -0.926685 -0.182154 0 -0.0122434 0.0122434 0.0127602 -0.0122434 
0.597242 0.0563789 0.160837 -0.230339 -0.958708 -0.166803 0 -0.0149113 0.0149113 0.0150298 -0.0149113 
0.602455 0.0548646 0.161248 -0.26791 -0.947634 -0.173822 0 -0.0138204 0.0138204 0.0146335 -0.0138204 
0.591047 0.057777 0.16051 -0.180222 -0.971724 -0.152554 0 -0.0163229 0.0163229 0.016477 -0.0163229 
0.583018 0.0587673 0.162498 -0.127471 -0.98184 -0.140501 0 -0.0175364 0.0175364 0.0180208 -0.0175364 
0.575043 0.0593502 0.164644 -0.083468 -0.987856 -0.131049 0 -0.0184155 0.0184155 0.0195505 -0.0184155 
0.561885 0.0600797 0.164742 -0.0151 -0.994929 -0.0994354 0 -0.0196377 0.0196377 0.0202911 -0.0196377 
0.542328 0.0604874 0.15875 -0.0164148 -0.995077 -0.0977401 0 -0.0215627 0.0215627 0.0216516 -0.0215627 
-0.574003 0.0995453 0.161051 0.262228 -0.932767 -0.24735 0 -0.0167403 0.0167403 0.0172487 -0.0167403 
-0.568555 0.102092 0.155715 0.174972 -0.963508 -0.202575 0 -0.0174389 0.0174389 0.0175451 -0.0174389 
-0.561257 0.102197 0.159725 0.12498 -0.973466 -0.19169 0 -0.0173654 0.0173654 0.0174683 -0.0173654 
-0.553323 0.103079 0.159177 0.0739031 -0.983647 -0.164247 0 -0.0168373 0.0168373 0.0168554 -0.0168373 
-0.545153 0.103137 0.161047 0.0307455 -0.98877 -0.146251 0 -0.0165504 0.0165504 0.0167937 -0.0165504 
-0.524304 0.102543 0.163342 -0.0247837 -0.992707 -0.117976 0 -0.0177076 0.0177076 0.0182148 -0.0177076 
-0.511976 0.102135 0.162611 -0.0408071 -0.993526 -0.106028 0 -0.0177328 0.0177328 0.0182675 -0.0177328 
0.671748 -0.0223548 0.166252 -0.92451 -0.310777 -0.220678 0 0.00375165 0.00375165 0.00510782 0.00375165 
0.667045 -0.00916497 0.165819 -0.898432 -0.380647 -0.218922 0 0.00425949 0.00425949 0.00503971 0.00425949 
0.662207 0.00359737 0.161289 -0.862699 -0.459899 -0.210341 0 0.00365159 0.00365159 0.00552917 0.00365159 
0.657988 0.0102139 0.163243 -0.828404 -0.512504 -0.226026 0 0.00258104 0.00258104 0.00266185 0.00258104 
0.654524 0.0164958 0.161047 -0.799845 -0.559499 -0.217277 0 0.00174897 0.00174897 0.00442861 0.00174897 
0.649935 0.0236086 0.158574 -0.758538 -0.618565 -0.204932 0 0.000696537 0.000696537 0.0061009 0.000696537 
0.646828 0.0253425 0.164414 -0.736434 -0.635971 -0.230663 0 -0.00034536 0.00034536 0.00441502 -0.00034536 
0.641478 0.031166 0.164561 -0.684721 -0.689966 -0.234741 0 -0.00208126 0.00208126 0.00400182 -0.00208126 
-0.617963 0.0712294 0.160945 0.729988 -0.57998 -0.361581 0 -0.00558723 0.00558723 0.00654821 -0.00558723 
0.523398 0.0612057 0.159027 -0.026104 -0.994531 -0.101129 0 -0.0222175 0.0222175 0.0222722 -0.0222175 
-0.609693 0.0816702 0.157938 0.637279 -0.687975 -0.347227 0 -0.0088771 0.0088771 0.00899736 -0.0088771 
0.435145 0.0633489 0.163925 -0.0257497 -0.996014 -0.0853946 0 -0.02349 0.02349 0.0236445 -0.02349 
0.448601 0.0633847 0.15794 -0.0304917 -0.996276 -0.0806495 0 -0.0230622 0.0230622 0.023668 -0.0230622 
-0.605006 0.0854415 0.158575 0.582876 -0.74134 -0.332672 0 -0.010208 0.010208 0.0108689 -0.010208 
-0.600671 0.0899948 0.154656 0.512126 -0.807597 -0.292428 0 -0.0118914 0.0118914 0.0123712 -0.0118914 
-0.591616 0.093337 0.159563 0.425854 -0.856151 -0.292666 0 -0.0140333 0.0140333 0.0145374 -0.0140333 
-0.587528 0.0977276 0.151434 0.367828 -0.889085 -0.272453 0 -0.0158951 0.0158951 0.0167904 -0.0158951 
0.685894 -0.0807155 0.16591 -0.963039 -0.1712 -0.207958 0 0.00150244 0.00150244 0.00236765 0.00150244 
0.685128 -0.073229 0.163191 -0.962985 -0.190107 -0.191099 0 0.00192663 0.00192663 0.00220914 0.00192663 
0.683566 -0.0713377 0.168932 -0.956125 -0.193236 -0.220191 0 0.00222092 0.00222092 0.00528279 0.00222092 
0.682847 -0.0626365 0.163641 -0.957272 -0.218236 -0.189743 0 0.00238054 0.00238054 0.00296647 0.00238054 
0.680886 -0.0526977 0.162183 -0.954465 -0.232866 -0.186468 0 0.00263313 0.00263313 0.0037643 0.00263313 
0.678448 -0.0419877 0.161532 -0.949997 -0.25027 -0.186739 0 0.00307848 0.00307848 0.00418211 0.00307848 
0.674888 -0.0319152 0.165405 -0.935808 -0.282361 -0.211036 0 0.00347982 0.00347982 0.00415975 0.00347982 
-0.637496 0.0374487 0.160007 0.875761 -0.321542 -0.360076 0 0.000227198 0.000227198 0.00426016 0.000227198 
-0.63293 0.0446706 0.163625 0.837836 -0.390565 -0.381431 0 -0.000521009 0.000521009 0.00221083 -0.000521009 
-0.626406 0.0549284 0.166084 0.801358 -0.455928 -0.38724 0 -0.00200165 0.00200165 0.00432522 -0.00200165 
-0.623023 0.0628303 0.163101 0.772935 -0.511431 -0.375512 0 -0.00337493 0.00337493 0.00450269 -0.00337493 
-0.6214 0.0679572 0.159027 0.755268 -0.549944 -0.356556 0 -0.00443603 0.00443603 0.00560172 -0.00443603 
0.360415 0.0666012 0.157656 -0.0169211 -0.995392 -0.0943829 0 -0.0226697 0.0226697 0.0235315 -0.0226697 
0.398987 0.0650316 0.16007 -0.0340953 -0.995069 -0.0931447 0 -0.0240325 0.0240325 0.0246915 -0.0240325 
0.385761 0.065402 0.162439 -0.0191281 -0.994091 -0.106852 0 -0.023967 0.023967 0.0239941 -0.023967 
0.328189 0.067555 0.159017 -0.0331574 -0.995658 -0.0869816 0 -0.0231165 0.0231165 0.0236364 -0.0231165 
0.308535 0.0678863 0.163176 -0.0268897 -0.994466 -0.101561 0 -0.0235524 0.0235524 0.0238515 -0.0235524 
-0.32649 0.0914386 0.161295 -0.0340967 -0.997185 -0.0667763 0 -0.0213165 0.0213165 0.0213436 -0.0213165 
0.690746 -0.122139 0.168154 -0.964605 -0.10145 -0.243405 0 -9.90499e-05 9.90499e-05 0.00361166 -9.90499e-05 
0.689622 -0.113324 0.16922 -0.963699 -0.108183 -0.244092 0 0.000169373 0.000169373 0.00504384 0.000169373 
0.689048 -0.0982568 0.16372 -0.967831 -0.141649 -0.207939 0 0.000641596 0.000641596 0.00352338 0.000641596 
0.688521 -0.0907468 0.160985 -0.969254 -0.15684 -0.189601 0 0.00103797 0.00103797 0.00368682 0.00103797 
-0.644544 -0.0106102 0.167151 0.908673 -0.0936348 -0.406873 0 0.000631077 0.000631077 0.00321586 0.000631077 
-0.644551 0.00296198 0.163244 0.912444 -0.133571 -0.386787 0 0.00140071 0.00140071 0.00504629 0.00140071 
-0.640172 0.0154423 0.168138 0.892245 -0.182876 -0.412862 0 0.000900565 0.000900565 0.00410712 0.000900565 
-0.638683 0.0238309 0.167152 0.884738 -0.226608 -0.407292 0 0.000897253 0.000897253 0.00439175 0.000897253 
-0.633741 0.0377165 0.168332 0.854422 -0.331373 -0.400194 0 3.69007e-05 3.69007e-05 0.00430872 3.69007e-05 
-0.607134 0.0804695 0.164856 0.626109 -0.688547 -0.365911 0 -0.00864086 0.00864086 0.00987607 -0.00864086 
0.27155 0.0684624 0.168268 -0.0193029 -0.994987 -0.0981194 0 -0.023079 0.023079 0.0239395 -0.023079 
0.280957 0.0685125 0.165859 -0.0223758 -0.995443 -0.0926984 0 -0.022787 0.022787 0.0233781 -0.022787 
0.295981 0.0684725 0.160652 -0.0238947 -0.995247 -0.0944023 0 -0.0233711 0.0233711 0.0234427 -0.0233711 
0.264616 0.0696177 0.160056 -0.0204665 -0.995607 -0.0913662 0 -0.0233207 0.0233207 0.0234717 -0.0233207 
0.215467 0.0704749 0.164321 -0.0241577 -0.9941 -0.105739 0 -0.0245695 0.0245695 0.0246151 -0.0245695 
0.695813 -0.183282 0.169087 -0.949719 -0.0752562 -0.303925 0 -0.000844678 0.000844678 0.00368377 -0.000844678 
0.694892 -0.172557 0.169455 -0.952527 -0.0849606 -0.292358 0 0.000658077 0.000658077 0.00384445 0.000658077 
0.695102 -0.164029 0.166322 -0.956842 -0.0891189 -0.276608 0 0.000460091 0.000460091 0.00242304 0.000460091 
0.694882 -0.155676 0.164334 -0.963075 -0.0997951 -0.250057 0 0.000355346 0.000355346 0.00409759 0.000355346 
0.693231 -0.14434 0.166627 -0.962709 -0.0995462 -0.25156 0 0.00019711 0.00019711 0.0029855 0.00019711 
0.691847 -0.132847 0.167785 -0.963404 -0.0997169 -0.248815 0 7.71488e-05 7.71488e-05 0.00257407 7.71488e-05 
-0.647678 -0.0501984 0.166809 0.912722 -0.0496308 -0.405556 0 -0.000102261 0.000102261 0.00294714 -0.000102261 
-0.649056 -0.0352105 0.161361 0.923578 -0.0587455 -0.378882 0 4.34211e-05 4.34211e-05 0.00501995 4.34211e-05 
-0.64695 -0.0226909 0.164176 0.91632 -0.0720288 -0.393916 0 0.000183632 0.000183632 0.00122819 0.000183632 
0.164007 0.0721434 0.165168 -0.0428618 -0.991939 -0.119249 0 -0.0235349 0.0235349 0.0235863 -0.0235349 
0.180991 0.0718414 0.162665 -0.0263437 -0.99359 -0.109935 0 -0.0233743 0.0233743 0.0237232 -0.0233743 
0.127743 0.074116 0.160139 -0.0264919 -0.994945 -0.0968683 0 -0.0227738 0.0227738 0.0233128 -0.0227738 
0.141931 0.073065 0.163857 -0.0220404 -0.993505 -0.111636 0 -0.0231749 0.0231749 0.023346 -0.0231749 
0.152538 0.0732914 0.160814 -0.0261343 -0.993486 -0.110916 0 -0.0231889 0.0231889 0.0234729 -0.0231889 
0.090649 0.0750366 0.164047 -0.0329014 -0.99358 -0.108244 0 -0.0236359 0.0236359 0.0239271 -0.0236359 
0.106326 0.0742176 0.1639 -0.0318225 -0.994112 -0.103583 0 -0.0238554 0.0238554 0.0239288 -0.0238554 
0.076436 0.0756364 0.163164 -0.0263281 -0.9942 -0.104276 0 -0.0235569 0.0235569 0.0236389 -0.0235569 
0.699198 -0.220543 0.165589 -0.950203 -0.0540297 -0.306914 0 -0.020787 0.020787 0.0209547 -0.020787 
0.699856 -0.209608 0.161571 -0.957274 -0.0614667 -0.282574 0 -0.0125851 0.0125851 0.0130385 -0.0125851 
0.697983 -0.201734 0.166198 -0.949637 -0.0678317 -0.305923 0 -0.00693634 0.00693634 0.00837652 -0.00693634 
0.69706 -0.192899 0.167251 -0.949871 -0.075262 -0.303447 0 -0.00300325 0.00300325 0.00363911 -0.00300325 
-0.649133 -0.0929892 0.168136 0.913576 -0.035139 -0.405146 0 -0.0016593 0.0016593 0.00273099 -0.0016593 
-0.650467 -0.0817773 0.164072 0.921051 -0.0362802 -0.387749 0 -0.00115302 0.00115302 0.00266346 -0.00115302 
-0.650252 -0.0689872 0.163102 0.920345 -0.0442538 -0.388595 0 -0.000649835 0.000649835 0.00500396 -0.000649835 
-0.65019 -0.0607359 0.162214 0.922246 -0.0438389 -0.384109 0 -0.000146244 0.000146244 0.00454475 -0.000146244 
0.203947 0.0707373 0.165623 -0.0217624 -0.992511 -0.120202 0 -0.0244731 0.0244731 0.0245068 -0.0244731 
0.0174647 0.0776142 0.165165 -0.033143 -0.995164 -0.0924705 0 -0.0228664 0.0228664 0.0230516 -0.0228664 
0.0257714 0.0771409 0.168307 -0.0263643 -0.995872 -0.0868579 0 -0.0230209 0.0230209 0.0233404 -0.0230209 
0.0336279 0.076938 0.164953 -0.0392121 -0.99653 -0.0734213 0 -0.0233988 0.0233988 0.0234362 -0.0233988 
0.0472539 0.0765961 0.16491 -0.0361773 -0.994373 -0.0995635 0 -0.0234624 0.0234624 0.0236225 -0.0234624 
-0.000349936 0.0784988 0.163483 -0.00536946 -0.997158 -0.0751462 0 -0.023118 0.023118 0.0236364 -0.023118 
-0.0363684 0.0799839 0.161549 -0.0147046 -0.996144 -0.0864967 0 -0.0233394 0.0233394 0.0236659 -0.0233394 
-0.0150003 0.0789978 0.163451 -0.0437462 -0.994752 -0.0924966 0 -0.0232604 0.0232604 0.0233126 -0.0232604 
-0.586879 0.0957343 0.158546 0.37243 -0.885344 -0.278321 0 -0.0150455 0.0150455 0.0152274 -0.0150455 
-0.65476 -0.179192 0.166299 0.913127 -0.0391691 -0.405789 0 -0.00180881 0.00180881 0.00542127 -0.00180881 
-0.654199 -0.154541 0.164705 0.915872 -0.0468743 -0.398725 0 -0.00112625 0.00112625 0.00366561 -0.00112625 
-0.653808 -0.141254 0.163568 0.920117 -0.0584989 -0.38725 0 -0.0015101 0.0015101 0.0044354 -0.0015101 
-0.651518 -0.128782 0.166928 0.912978 -0.0551853 -0.404261 0 -0.00197898 0.00197898 0.00457058 -0.00197898 
-0.649504 -0.115802 0.16957 0.910759 -0.0473346 -0.410216 0 -0.00229781 0.00229781 0.00503175 -0.00229781 
0.676838 -0.0421227 0.169083 -0.940503 -0.252584 -0.227279 0 0.00326239 0.00326239 0.00380681 0.00326239 
-0.646537 -0.0329178 0.166838 0.911433 -0.061004 -0.406901 0 -1.60715e-05 1.60715e-05 0.000183285 -1.60715e-05 
0.152045 0.0724387 0.167526 -0.0196236 -0.991631 -0.127606 0 -0.0235288 0.0235288 0.023722 -0.0235288 
-0.597205 0.0896866 0.161061 0.499362 -0.805315 -0.31954 0 -0.0118381 0.0118381 0.0119344 -0.0118381 
0.13044 0.0729842 0.169003 -0.0217836 -0.991089 -0.131412 0 -0.0231675 0.0231675 0.0237924 -0.0231675 
-0.0493366 0.0796164 0.168716 -0.0259947 -0.995434 -0.09185 0 -0.0232235 0.0232235 0.0238474 -0.0232235 
-0.0623141 0.0804464 0.165851 -0.0400629 -0.994998 -0.0915116 0 -0.0233087 0.0233087 0.023471 -0.0233087 
-0.0954002 0.0811617 0.169178 -0.0547391 -0.998269 -0.0215006 0 -0.0234942 0.0234942 0.0237314 -0.0234942 
-0.0819091 0.0812934 0.165823 -0.0286771 -0.996217 -0.0820267 0 -0.0231544 0.0231544 0.0233616 -0.0231544 
-0.159654 0.0839222 0.160662 -0.0515296 -0.994529 -0.0908698 0 -0.0224778 0.0224778 0.0234344 -0.0224778 
-0.147765 0.0833888 0.160782 -0.0153653 -0.995223 -0.0964068 0 -0.022666 0.022666 0.0232954 -0.022666 
-0.135354 0.082668 0.168684 0.0187035 -0.99723 -0.0719833 0 -0.0222895 0.0222895 0.0225468 -0.0222895 
-0.128315 0.0834276 0.161831 0.0084686 -0.998129 -0.0605472 0 -0.022363 0.022363 0.0229174 -0.022363 
-0.658558 -0.205271 0.162092 0.91133 -0.135239 -0.388828 0 -0.0136072 0.0136072 0.0142055 -0.0136072 
-0.656509 -0.193568 0.164151 0.917753 -0.0656733 -0.391685 0 -0.00721453 0.00721453 0.0086632 -0.00721453 
-0.653595 -0.189476 0.170028 0.904251 -0.0568808 -0.423196 0 -0.00652936 0.00652936 0.00791024 -0.00652936 
-0.652355 -0.17502 0.171091 0.903409 -0.0361905 -0.42725 0 -0.00278438 0.00278438 0.00498579 -0.00278438 
-0.65386 -0.166531 0.166958 0.913482 -0.0427953 -0.404623 0 -0.00145582 0.00145582 0.00397624 -0.00145582 
-0.646697 -0.0411756 0.16774 0.910648 -0.0554608 -0.409444 0 -1.1231e-05 1.1231e-05 0.00175601 -1.1231e-05 
-0.180561 0.0849774 0.165933 -0.0587083 -0.995079 -0.0798198 0 -0.0210378 0.0210378 0.0214914 -0.0210378 
-0.168256 0.0840733 0.16804 -0.0789416 -0.992671 -0.0915049 0 -0.0216935 0.0216935 0.0220671 -0.0216935 
-0.193275 0.0855298 0.168747 -0.0434537 -0.995727 -0.0814846 0 -0.0208051 0.0208051 0.0210383 -0.0208051 
-0.234575 0.0868526 0.170497 -0.0339035 -0.995483 -0.0886821 0 -0.0206648 0.0206648 0.0210284 -0.0206648 
-0.221302 0.0863034 0.170583 -0.02272 -0.995785 -0.088856 0 -0.0204165 0.0204165 0.02118 -0.0204165 
-0.248069 0.0880398 0.164055 -0.0400217 -0.995234 -0.0889244 0 -0.0208285 0.0208285 0.0211648 -0.0208285 
-0.261475 0.0885534 0.165835 -0.0353781 -0.995008 -0.0933109 0 -0.0210026 0.0210026 0.0214005 -0.0210026 
-0.687115 -0.221787 0.172134 -0.010863 -0.999937 0.00265876 0 -0.014674 0.014674 0.0154524 -0.014674 
-0.675791 -0.221531 0.16853 0.111426 -0.993182 -0.0342737 0 -0.0168106 0.0168106 0.0180722 -0.0168106 
-0.667977 -0.219671 0.167628 0.368666 -0.916639 -0.15446 0 -0.0187848 0.0187848 0.0190651 -0.0187848 
0.553111 0.059524 0.168386 0.0241838 -0.995305 -0.093718 0 -0.0209207 0.0209207 0.0209364 -0.0209207 
-0.273001 0.0884701 0.170453 -0.0284632 -0.994358 -0.102181 0 -0.0210761 0.0210761 0.0214931 -0.0210761 
-0.292535 0.0894385 0.169583 -0.0408833 -0.995537 -0.0850557 0 -0.0210899 0.0210899 0.0213993 -0.0210899 
-0.285931 0.0895865 0.162943 -0.0401138 -0.996099 -0.0785989 0 -0.0212706 0.0212706 0.0216781 -0.0212706 
-0.328493 0.0908439 0.170355 -0.0305427 -0.996156 -0.0821018 0 -0.0209978 0.0209978 0.0214613 -0.0209978 
-0.311255 0.0902569 0.167421 -0.0327554 -0.995756 -0.0860041 0 -0.0211088 0.0211088 0.0214968 -0.0211088 
-0.342845 0.0916076 0.167553 -0.0282025 -0.996343 -0.0806604 0 -0.0212568 0.0212568 0.0214108 -0.0212568 
-0.409204 0.0956125 0.163434 -0.0653908 -0.995458 -0.0691847 0 -0.020976 0.020976 0.0218394 -0.020976 
-0.394394 0.0945269 0.167006 -0.0482724 -0.996832 -0.0632168 0 -0.0208211 0.0208211 0.0208717 -0.0208211 
-0.44672 0.0971899 0.171629 -0.0456911 -0.994227 -0.0970819 0 -0.0203385 0.0203385 0.0206784 -0.0203385 
-0.421286 0.0962837 0.166453 -0.0670503 -0.993919 -0.0873406 0 -0.0208339 0.0208339 0.0212829 -0.0208339 
-0.494264 0.10075 0.165814 -0.0564946 -0.993456 -0.0992611 0 -0.0184177 0.0184177 0.0186561 -0.0184177 
-0.482271 0.100183 0.16355 -0.0579179 -0.993934 -0.0934899 0 -0.0189197 0.0189197 0.0197641 -0.0189197 
-0.472236 0.0989921 0.16903 -0.0566908 -0.993407 -0.0996418 0 -0.0194435 0.0194435 0.0196028 -0.0194435 
0.69316 -0.152854 0.169742 -0.956453 -0.0936549 -0.276452 0 0.000484083 0.000484083 0.00233754 0.000484083 
0.635066 0.034822 0.170869 -0.632708 -0.731675 -0.253637 0 -0.00353328 0.00353328 0.00461703 -0.00353328 
0.628874 0.0409732 0.167723 -0.560686 -0.792266 -0.240721 0 -0.00549233 0.00549233 0.00725504 -0.00549233 
0.625292 0.0421826 0.171649 -0.525068 -0.81266 -0.252758 0 -0.00717696 0.00717696 0.00791967 -0.00717696 
0.617678 0.0477432 0.167694 -0.427939 -0.875655 -0.223824 0 -0.00972795 0.00972795 0.0100686 -0.00972795 
0.609579 0.0504137 0.171203 -0.346629 -0.912255 -0.218263 0 -0.0115819 0.0115819 0.0117685 -0.0115819 
0.603264 0.0527249 0.170532 -0.284545 -0.937363 -0.20096 0 -0.0130892 0.0130892 0.0142045 -0.0130892 
0.595761 0.0554328 0.167621 -0.229453 -0.956039 -0.182595 0 -0.0149168 0.0149168 0.0152192 -0.0149168 
0.589743 0.056432 0.169553 -0.192517 -0.964998 -0.178091 0 -0.016154 0.016154 0.0161698 -0.016154 
0.583575 0.0575873 0.169312 -0.145268 -0.976085 -0.161725 0 -0.0175293 0.0175293 0.0177922 -0.0175293 
0.567635 0.0586476 0.173631 -0.0639976 -0.988722 -0.135397 0 -0.019427 0.019427 0.0205883 -0.019427 
-0.579774 0.0974077 0.161995 0.328357 -0.903712 -0.274749 0 -0.016397 0.016397 0.0170446 -0.016397 
-0.572404 0.0980285 0.167958 0.268745 -0.926858 -0.262127 0 -0.0163802 0.0163802 0.0170471 -0.0163802 
-0.565799 0.100462 0.164744 0.186371 -0.95599 -0.226603 0 -0.0171562 0.0171562 0.0173402 -0.0171562 
-0.552379 0.10094 0.170581 0.109528 -0.972936 -0.203466 0 -0.0168535 0.0168535 0.017145 -0.0168535 
-0.544233 0.101209 0.172389 0.0628025 -0.982143 -0.177344 0 -0.0169703 0.0169703 0.0175346 -0.0169703 
-0.532567 0.102199 0.167428 -0.00483456 -0.990975 -0.133959 0 -0.0176075 0.0176075 0.0176738 -0.0176075 
-0.525164 0.101428 0.171761 -0.0142327 -0.99106 -0.132657 0 -0.0175343 0.0175343 0.0178326 -0.0175343 
-0.517516 0.101094 0.172734 -0.024729 -0.991422 -0.12834 0 -0.0176571 0.0176571 0.0183592 -0.0176571 
-0.647495 -0.0685575 0.169265 0.907778 -0.0434812 -0.417192 0 -0.000665211 0.000665211 0.00560645 -0.000665211 
0.668011 -0.0162124 0.172634 -0.905615 -0.341974 -0.250831 0 0.00397953 0.00397953 0.00417241 0.00397953 
0.665061 -0.00826137 0.171934 -0.884394 -0.392759 -0.252166 0 0.00389773 0.00389773 0.00451978 0.00389773 
0.661134 -0.00281544 0.17645 -0.857005 -0.432353 -0.28038 0 0.00332533 0.00332533 0.00546873 0.00332533 
0.658131 0.00445231 0.173875 -0.832089 -0.482453 -0.273617 0 0.00263924 0.00263924 0.0048958 0.00263924 
0.654579 0.0116649 0.171335 -0.804598 -0.530504 -0.26681 0 0.00184047 0.00184047 0.00310206 0.00184047 
0.650546 0.0188327 0.168827 -0.773203 -0.580643 -0.254972 0 0.000964193 0.000964193 0.004036 0.000964193 
0.643321 0.0270538 0.170288 -0.708965 -0.656142 -0.258545 0 -0.00114877 0.00114877 0.00232205 -0.00114877 
-0.614098 0.0711598 0.168318 0.709922 -0.584205 -0.393339 0 -0.00559217 0.00559217 0.00740714 -0.00559217 
-0.610568 0.0763863 0.166307 0.667159 -0.644158 -0.374113 0 -0.00700627 0.00700627 0.00798899 -0.00700627 
0.51159 0.0605509 0.166253 -0.0163575 -0.99413 -0.106949 0 -0.0232738 0.0232738 0.0237462 -0.0232738 
0.478616 0.0611472 0.1701 -0.0275727 -0.995306 -0.0927657 0 -0.0236183 0.0236183 0.023994 -0.0236183 
0.49483 0.0607693 0.168238 -0.0234626 -0.995327 -0.0936657 0 -0.0236097 0.0236097 0.0237127 -0.0236097 
0.456668 0.0621814 0.168009 -0.0287354 -0.995592 -0.0892752 0 -0.0237373 0.0237373 0.0239979 -0.0237373 
-0.604507 0.0788943 0.1717 0.61994 -0.675401 -0.399385 0 -0.00842895 0.00842895 0.00953021 -0.00842895 
0.438035 0.0624076 0.172183 -0.02702 -0.993917 -0.106768 0 -0.0239033 0.0239033 0.0242145 -0.0239033 
0.423201 0.0629516 0.171336 -0.0221533 -0.9945 -0.10237 0 -0.024196 0.024196 0.0242183 -0.024196 
-0.599446 0.0855673 0.166892 0.546288 -0.758399 -0.355529 0 -0.010577 0.010577 0.0108929 -0.010577 
-0.589746 0.090642 0.169038 0.451763 -0.826432 -0.336036 0 -0.0125985 0.0125985 0.0133248 -0.0125985 
-0.582198 0.0947482 0.167314 0.362587 -0.883011 -0.298029 0 -0.0148465 0.0148465 0.0149274 -0.0148465 
0.692666 -0.159651 0.173308 -0.950375 -0.0853132 -0.299181 0 0.000844384 0.000844384 0.00208152 0.000844384 
0.683649 -0.0782084 0.173579 -0.952697 -0.171721 -0.250759 0 0.00173387 0.00173387 0.00348048 0.00173387 
0.681763 -0.069468 0.174695 -0.947434 -0.195816 -0.253031 0 0.00240354 0.00240354 0.00281564 0.00240354 
0.680884 -0.0619929 0.171981 -0.94675 -0.219772 -0.235297 0 0.00278648 0.00278648 0.00401936 0.00278648 
0.676759 -0.0487998 0.175794 -0.935415 -0.238599 -0.260901 0 0.00300936 0.00300936 0.00393098 0.00300936 
0.673982 -0.0387305 0.176446 -0.927894 -0.260336 -0.266903 0 0.00335021 0.00335021 0.00453178 0.00335021 
0.672836 -0.0322264 0.174097 -0.925622 -0.282663 -0.251648 0 0.00350089 0.00350089 0.00410758 0.00350089 
-0.630081 0.0401177 0.173735 0.831824 -0.354202 -0.427329 0 6.38331e-05 6.38331e-05 0.00317686 6.38331e-05 
-0.629147 0.0470961 0.169029 0.821794 -0.405536 -0.400243 0 -0.000977289 0.000977289 0.00472612 -0.000977289 
-0.622128 0.0573904 0.171448 0.777262 -0.479483 -0.407382 0 -0.00237356 0.00237356 0.0028173 -0.00237356 
-0.617438 0.0651553 0.170607 0.739885 -0.535155 -0.407652 0 -0.00378622 0.00378622 0.00393073 -0.00378622 
-0.608074 0.0747271 0.173217 0.669215 -0.619297 -0.410637 0 -0.00644491 0.00644491 0.00713165 -0.00644491 
0.407856 0.0639273 0.167145 -0.0355235 -0.99448 -0.0987351 0 -0.0243448 0.0243448 0.0249137 -0.0243448 
0.37941 0.0646299 0.168219 -0.0245238 -0.994574 -0.101096 0 -0.0243504 0.0243504 0.0249549 -0.0243504 
0.390975 0.0638494 0.174581 -0.0231806 -0.993918 -0.107658 0 -0.0246196 0.0246196 0.0251329 -0.0246196 
0.331163 0.0656523 0.174947 -0.0199088 -0.991165 -0.131129 0 -0.024049 0.024049 0.0244551 -0.024049 
0.349127 0.0657739 0.168267 -0.0263938 -0.994294 -0.103357 0 -0.0236378 0.0236378 0.0243627 -0.0236378 
0.313041 0.0666164 0.172569 -0.0424425 -0.990776 -0.128691 0 -0.0239672 0.0239672 0.0240231 -0.0239672 
0.689495 -0.129405 0.175114 -0.953495 -0.0935303 -0.286529 0 0.000370033 0.000370033 0.00212752 0.000370033 
0.688066 -0.120752 0.177313 -0.950712 -0.0958834 -0.294878 0 0.000428385 0.000428385 0.00273451 0.000428385 
0.68787 -0.11145 0.174972 -0.954927 -0.108811 -0.276178 0 0.000809092 0.000809092 0.000838147 0.000809092 
0.685903 -0.102036 0.177978 -0.949171 -0.126964 -0.288019 0 0.00122533 0.00122533 0.00369093 0.00122533 
0.685681 -0.0944962 0.175223 -0.953366 -0.142595 -0.266009 0 0.00130809 0.00130809 0.00362311 0.00130809 
0.684738 -0.0863458 0.174393 -0.954157 -0.153715 -0.256819 0 0.00148983 0.00148983 0.00207133 0.00148983 
-0.647284 -0.0786729 0.170826 0.903948 -0.0426309 -0.425513 0 -0.00124612 0.00124612 0.00577771 -0.00124612 
-0.641413 -0.0125126 0.174144 0.891983 -0.0872245 -0.443575 0 -2.38621e-05 2.38621e-05 0.000903477 -2.38621e-05 
-0.641555 -0.00225831 0.171464 0.896018 -0.116758 -0.428391 0 0.000364993 0.000364993 0.00376237 0.000364993 
-0.638117 0.00471999 0.176266 0.87975 -0.141422 -0.453916 0 0.000183076 0.000183076 0.00300703 0.000183076 
-0.636757 0.0225553 0.171836 0.87711 -0.216051 -0.428951 0 0.000618261 0.000618261 0.00409588 0.000618261 
-0.633331 0.025879 0.176906 0.85992 -0.229815 -0.455766 0 0.000538053 0.000538053 0.0031171 0.000538053 
0.297981 0.0669172 0.17369 -0.0336834 -0.9924 -0.118356 0 -0.0239813 0.0239813 0.0241795 -0.0239813 
0.231126 0.0693742 0.169334 -0.0182808 -0.995025 -0.0979371 0 -0.0237461 0.0237461 0.02423 -0.0237461 
0.24419 0.0690723 0.170415 -0.020121 -0.995757 -0.0897966 0 -0.0235602 0.0235602 0.023696 -0.0235602 
0.257226 0.0681832 0.174097 -0.0291859 -0.995248 -0.0928911 0 -0.0242557 0.0242557 0.024413 -0.0242557 
0.220675 0.0693605 0.173111 -0.0226766 -0.993401 -0.112425 0 -0.0244855 0.0244855 0.0247275 -0.0244855 
0.203236 0.0692455 0.175773 -0.0442482 -0.998412 -0.0348631 0 -0.0248471 0.0248471 0.0251205 -0.0248471 
0.118979 0.0730083 0.170912 -0.0249461 -0.993184 -0.113857 0 -0.0236209 0.0236209 0.0240853 -0.0236209 
0.693627 -0.183342 0.175561 -0.941373 -0.0737864 -0.329201 0 -0.000914044 0.000914044 0.00180288 -0.000914044 
0.692348 -0.16819 0.176449 -0.944517 -0.0765176 -0.319427 0 0.000807415 0.000807415 0.00114337 0.000807415 
0.69086 -0.153057 0.177335 -0.945658 -0.0841753 -0.314079 0 0.000681832 0.000681832 0.00253144 0.000681832 
0.690495 -0.142959 0.175786 -0.949829 -0.091931 -0.298955 0 0.000252415 0.000252415 0.00158317 0.000252415 
-0.645138 -0.0552004 0.172829 0.900038 -0.0469322 -0.433277 0 -0.000458525 0.000458525 0.00399082 -0.000458525 
-0.643664 -0.0457878 0.17467 0.894958 -0.0533058 -0.442954 0 -0.000471483 0.000471483 0.00316986 -0.000471483 
-0.643476 -0.0338747 0.173504 0.897373 -0.0598243 -0.437199 0 -0.000247282 0.000247282 0.00227612 -0.000247282 
-0.640704 -0.0200048 0.176866 0.885894 -0.0734823 -0.45803 0 -0.000276065 0.000276065 0.00352696 -0.000276065 
-0.636012 0.0138542 0.177125 0.870483 -0.17538 -0.459893 0 0.000396671 0.000396671 0.00378238 0.000396671 
0.630693 0.0364401 0.176794 -0.593333 -0.757353 -0.272713 0 -0.00450503 0.00450503 0.00521715 -0.00450503 
0.167956 0.0703041 0.176757 -0.0505954 -0.982766 -0.177794 0 -0.0242846 0.0242846 0.024778 -0.0242846 
0.177263 0.070381 0.172897 -0.035599 -0.985543 -0.165642 0 -0.0242353 0.0242353 0.0243547 -0.0242353 
0.190265 0.0705797 0.169862 -0.0143846 -0.98988 -0.141178 0 -0.0239381 0.0239381 0.0246688 -0.0239381 
0.135324 0.0722546 0.173392 0.0131249 -0.981871 -0.189094 0 -0.0234741 0.0234741 0.0234795 -0.0234741 
0.146544 0.07148 0.174428 -0.0273813 -0.988128 -0.151173 0 -0.0239766 0.0239766 0.0240586 -0.0239766 
0.153579 0.0714484 0.174228 -0.0264405 -0.98696 -0.158778 0 -0.0238637 0.0238637 0.0239115 -0.0238637 
0.0798217 0.0740796 0.174289 -0.0288254 -0.990752 -0.13259 0 -0.0236075 0.0236075 0.0241543 -0.0236075 
-0.564207 0.0990081 0.171626 0.19866 -0.946502 -0.254299 0 -0.0169434 0.0169434 0.0175104 -0.0169434 
0.697199 -0.226938 0.172249 -0.936835 -0.0572202 -0.345059 0 -0.0271372 0.0271372 0.0271373 -0.0271372 
0.696597 -0.21618 0.172588 -0.937081 -0.0523364 -0.345166 0 -0.0180588 0.0180588 0.0180781 -0.0180588 
0.695496 -0.201009 0.173453 -0.939231 -0.0645691 -0.337159 0 -0.00702378 0.00702378 0.00724436 -0.00702378 
0.694286 -0.190445 0.174954 -0.938158 -0.067765 -0.339511 0 -0.00232057 0.00232057 0.00372189 -0.00232057 
-0.64749 -0.100587 0.172466 0.9024 -0.040862 -0.428957 0 -0.00220939 0.00220939 0.00489738 -0.00220939 
-0.645431 -0.0853684 0.175359 0.895433 -0.0388767 -0.443495 0 -0.00153811 0.00153811 0.00302607 -0.00153811 
-0.644491 -0.07635 0.176293 0.892051 -0.0448359 -0.449705 0 -0.0011336 0.0011336 0.00375438 -0.0011336 
-0.644211 -0.0663189 0.175811 0.891478 -0.0420034 -0.451113 0 -0.000814209 0.000814209 0.0036241 -0.000814209 
0.102948 0.0734488 0.172806 -0.0169938 -0.988262 -0.15182 0 -0.0236332 0.0236332 0.0237061 -0.0236332 
0.0659798 0.0749398 0.171708 -0.0334301 -0.991109 -0.128788 0 -0.0235025 0.0235025 0.0236082 -0.0235025 
0.0224793 0.0761956 0.178327 -0.0408537 -0.990946 -0.127898 0 -0.0232822 0.0232822 0.0237918 -0.0232822 
0.0342575 0.0762837 0.173707 -0.0312799 -0.992794 -0.115677 0 -0.0232577 0.0232577 0.0232665 -0.0232577 
0.0490333 0.075191 0.174755 -0.0467139 -0.99168 -0.119953 0 -0.0237024 0.0237024 0.0241256 -0.0237024 
-0.00401142 0.0774052 0.175369 -0.0187268 -0.999582 -0.0220485 0 -0.0232058 0.0232058 0.023268 -0.0232058 
0.00375106 0.0780363 0.171784 -0.0294068 -0.98741 -0.155423 0 -0.0226788 0.0226788 0.0228425 -0.0226788 
0.0118596 0.0774786 0.171759 -0.0527195 -0.989524 -0.134401 0 -0.0231555 0.0231555 0.0234594 -0.0231555 
-0.0350389 0.0784677 0.175929 -0.0304372 -0.991393 -0.127329 0 -0.0232751 0.0232751 0.023323 -0.0232751 
-0.0261277 0.0780451 0.176888 -0.0360468 -0.989998 -0.136399 0 -0.0231758 0.0231758 0.0233372 -0.0231758 
-0.0152679 0.0779847 0.173413 -0.0413563 -0.991466 -0.123631 0 -0.0233314 0.0233314 0.0233486 -0.0233314 
-0.649038 -0.13886 0.173736 0.900033 -0.0571484 -0.432059 0 -0.00214899 0.00214899 0.00553585 -0.00214899 
-0.64777 -0.131699 0.175342 0.897612 -0.0558751 -0.437231 0 -0.00221659 0.00221659 0.0028008 -0.00221659 
-0.648196 -0.123366 0.173367 0.902881 -0.0513523 -0.426812 0 -0.00220627 0.00220627 0.0040177 -0.00220627 
-0.646381 -0.108984 0.17551 0.899385 -0.040433 -0.435283 0 -0.00227871 0.00227871 0.00449774 -0.00227871 
-0.080546 0.0799129 0.179066 -0.0360956 -0.993067 -0.111869 0 -0.0225679 0.0225679 0.0234348 -0.0225679 
-0.0707279 0.0800248 0.175294 -0.0442894 -0.994963 -0.0899295 0 -0.022466 0.022466 0.0228863 -0.022466 
-0.0615642 0.0789335 0.179155 -0.0463254 -0.992675 -0.111582 0 -0.0228866 0.0228866 0.0236035 -0.0228866 
-0.149636 0.0817618 0.180074 -0.0163202 -0.996627 -0.0804308 0 -0.0214838 0.0214838 0.0225917 -0.0214838 
-0.131306 0.0822644 0.176184 0.0221761 -0.996237 -0.0837879 0 -0.0212103 0.0212103 0.0215025 -0.0212103 
-0.123662 0.082732 0.170475 -0.0152639 -0.996621 -0.0807007 0 -0.0214655 0.0214655 0.0219592 -0.0214655 
-0.114716 0.0816665 0.174873 -0.0338097 -0.995804 -0.0850388 0 -0.0222083 0.0222083 0.0222086 -0.0222083 
-0.103381 0.0818054 0.171304 -0.0443055 -0.99783 -0.0487166 0 -0.0225284 0.0225284 0.0228434 -0.0225284 
-0.0980254 0.0813398 0.175583 -0.0564479 -0.997028 -0.0524382 0 -0.0223328 0.0223328 0.0225523 -0.0223328 
-0.654036 -0.200465 0.170871 0.896859 -0.0831587 -0.43443 0 -0.011121 0.011121 0.0123715 -0.011121 
-0.650272 -0.195479 0.177453 0.887373 -0.0648331 -0.456472 0 -0.00872012 0.00872012 0.00922529 -0.00872012 
-0.649412 -0.185522 0.178049 0.889723 -0.0434066 -0.454433 0 -0.00569889 0.00569889 0.00590388 -0.00569889 
-0.648785 -0.174645 0.178308 0.889565 -0.0368871 -0.455317 0 -0.00318165 0.00318165 0.00360373 -0.00318165 
-0.650069 -0.165319 0.174932 0.897243 -0.0412999 -0.439602 0 -0.00206217 0.00206217 0.00418423 -0.00206217 
-0.643597 -0.0984192 0.180091 0.884977 -0.0393068 -0.463973 0 -0.0023924 0.0023924 0.00594306 -0.0023924 
-0.623743 0.0503586 0.176207 0.792799 -0.429485 -0.432449 0 -0.00154211 0.00154211 0.00454311 -0.00154211 
0.0903277 0.0732554 0.175894 -0.0477606 -0.987161 -0.152419 0 -0.0240452 0.0240452 0.0244253 -0.0240452 
-0.151227 0.082655 0.172338 -0.0210209 -0.996285 -0.0835133 0 -0.0216915 0.0216915 0.0221832 -0.0216915 
-0.182385 0.0843439 0.175796 -0.054505 -0.994952 -0.0842545 0 -0.0206389 0.0206389 0.0207934 -0.0206389 
-0.169766 0.083256 0.176632 -0.0735609 -0.993083 -0.0915132 0 -0.0212097 0.0212097 0.0217869 -0.0212097 
-0.211561 0.0854228 0.177824 -0.0190867 -0.995146 -0.0965396 0 -0.0203306 0.0203306 0.0206987 -0.0203306 
-0.201916 0.0856893 0.1716 -0.034579 -0.995896 -0.0836342 0 -0.0206261 0.0206261 0.0212694 -0.0206261 
-0.239849 0.0859631 0.18109 -0.0400283 -0.996981 -0.066539 0 -0.020534 0.020534 0.0215966 -0.020534 
-0.257312 0.0869068 0.179107 -0.03082 -0.99636 -0.079482 0 -0.0206282 0.0206282 0.0209009 -0.0206282 
-0.67607 -0.221882 0.179318 0.0485343 -0.998745 -0.0123975 0 -0.016171 0.016171 0.0166774 -0.016171 
-0.663437 -0.219451 0.175942 0.394974 -0.899389 -0.187337 0 -0.0187047 0.0187047 0.0189609 -0.0187047 
-0.654978 -0.209752 0.172153 0.859476 -0.327674 -0.392341 0 -0.0161961 0.0161961 0.0176464 -0.0161961 
-0.649689 -0.201088 0.179501 0.88241 -0.099405 -0.459859 0 -0.0118856 0.0118856 0.012413 -0.0118856 
-0.645495 -0.120108 0.178491 0.890976 -0.0495923 -0.451334 0 -0.0023782 0.0023782 0.00358591 -0.0023782 
0.588273 0.0553715 0.176377 -0.196808 -0.961244 -0.193074 0 -0.0163966 0.0163966 0.0164151 -0.0163966 
-0.285247 0.0884112 0.175622 -0.0460945 -0.995301 -0.0851549 0 -0.0211909 0.0211909 0.0212186 -0.0211909 
-0.303405 0.0888619 0.177816 -0.030845 -0.996786 -0.0739406 0 -0.0211168 0.0211168 0.0212103 -0.0211168 
-0.353792 0.0912518 0.17491 -0.0398471 -0.996525 -0.0731476 0 -0.021556 0.021556 0.0217049 -0.021556 
-0.385211 0.0934146 0.175009 -0.051344 -0.995656 -0.0776714 0 -0.020986 0.020986 0.0211375 -0.020986 
-0.371333 0.0919051 0.181029 -0.0567067 -0.995988 -0.0692278 0 -0.0207906 0.0207906 0.0215217 -0.0207906 
-0.557114 0.0996658 0.173313 0.15036 -0.961465 -0.230166 0 -0.0168076 0.0168076 0.017891 -0.0168076 
0.691536 -0.179612 0.180655 -0.931062 -0.0624847 -0.359471 0 -0.000481543 0.000481543 0.00185173 -0.000481543 
-0.415102 0.0947211 0.178034 -0.0532407 -0.994835 -0.086417 0 -0.0211752 0.0211752 0.0211762 -0.0211752 
-0.456458 0.0964083 0.183381 -0.0420652 -0.992247 -0.116944 0 -0.0198447 0.0198447 0.0205472 -0.0198447 
-0.44386 0.0958259 0.1827 -0.0428691 -0.993095 -0.109199 0 -0.0204925 0.0204925 0.0209894 -0.0204925 
-0.430011 0.0961287 0.173416 -0.0512465 -0.994288 -0.093623 0 -0.0206024 0.0206024 0.0217047 -0.0206024 
-0.48886 0.0991156 0.176908 -0.0543629 -0.99157 -0.11762 0 -0.0187479 0.0187479 0.0193332 -0.0187479 
-0.475169 0.0982594 0.177105 -0.0546085 -0.991793 -0.115605 0 -0.0194711 0.0194711 0.0195265 -0.0194711 
-0.464805 0.0972285 0.180117 -0.0467019 -0.992198 -0.115593 0 -0.0197912 0.0197912 0.0198664 -0.0197912 
-0.64658 -0.141979 0.17907 0.887963 -0.0570483 -0.456363 0 -0.00238372 0.00238372 0.00324384 -0.00238372 
0.624165 0.0405486 0.178665 -0.5296 -0.801662 -0.27724 0 -0.00680191 0.00680191 0.00927531 -0.00680191 
0.618634 0.0443937 0.177417 -0.465839 -0.844419 -0.264481 0 -0.00917585 0.00917585 0.00941811 -0.00917585 
0.609441 0.0479111 0.180663 -0.371176 -0.891885 -0.258397 0 -0.0113687 0.0113687 0.0116499 -0.0113687 
0.602026 0.0508832 0.179765 -0.296427 -0.925614 -0.235306 0 -0.0134331 0.0134331 0.013908 -0.0134331 
0.58332 0.0559422 0.178448 -0.169554 -0.967364 -0.188307 0 -0.0174136 0.0174136 0.0179071 -0.0174136 
0.576531 0.0561465 0.182823 -0.137466 -0.972952 -0.185654 0 -0.0187974 0.0187974 0.0195333 -0.0187974 
0.568362 0.0571785 0.182673 -0.0869945 -0.983052 -0.16137 0 -0.0197494 0.0197494 0.0202818 -0.0197494 
0.560069 0.0581133 0.180429 -0.0293429 -0.990681 -0.133004 0 -0.020444 0.020444 0.0205656 -0.020444 
0.551862 0.0583402 0.178444 0.0112659 -0.993731 -0.111225 0 -0.0213682 0.0213682 0.0214081 -0.0213682 
0.530835 0.0590333 0.174515 -0.0160716 -0.99428 -0.105585 0 -0.0226704 0.0226704 0.0233685 -0.0226704 
-0.570792 0.0964172 0.174893 0.277895 -0.915447 -0.291087 0 -0.0159313 0.0159313 0.016118 -0.0159313 
-0.561605 0.0975088 0.178503 0.201515 -0.940412 -0.273894 0 -0.016554 0.016554 0.0170946 -0.016554 
-0.553558 0.0986025 0.179983 0.152712 -0.956192 -0.249753 0 -0.0166261 0.0166261 0.0172393 -0.0166261 
-0.549813 0.0997439 0.177338 0.115452 -0.968951 -0.218645 0 -0.0168771 0.0168771 0.0169479 -0.0168771 
-0.53549 0.0999383 0.18113 0.0408624 -0.981571 -0.186677 0 -0.0174886 0.0174886 0.0178845 -0.0174886 
-0.523627 0.100428 0.178474 -0.0102306 -0.989131 -0.146679 0 -0.017524 0.017524 0.0175271 -0.017524 
-0.516394 0.0999262 0.180584 -0.0189526 -0.989549 -0.142948 0 -0.0176165 0.0176165 0.0179075 -0.0176165 
-0.500378 0.100015 0.175309 -0.0461358 -0.9917 -0.120007 0 -0.0185512 0.0185512 0.019197 -0.0185512 
-0.646767 -0.15389 0.180244 0.883624 -0.0492071 -0.465604 0 -0.00203705 0.00203705 0.00265303 -0.00203705 
0.669307 -0.0254573 0.179183 -0.908867 -0.306182 -0.283222 0 0.00367413 0.00367413 0.00657504 0.00367413 
0.666553 -0.0211896 0.183021 -0.892594 -0.323206 -0.314348 0 0.00357677 0.00357677 0.00404253 0.00357677 
0.660844 -0.00836446 0.184876 -0.857804 -0.400182 -0.322533 0 0.00345099 0.00345099 0.00395858 0.00345099 
-0.637868 -0.00187193 0.178674 0.875382 -0.118244 -0.468747 0 0.000232539 0.000232539 0.00429125 0.000232539 
0.657147 -0.00047926 0.184232 -0.828783 -0.456531 -0.32357 0 0.00319409 0.00319409 0.00333335 0.00319409 
0.648709 0.0120746 0.18626 -0.774938 -0.541605 -0.325785 0 0.000767494 0.000767494 0.00508955 0.000767494 
0.641433 0.0224434 0.184805 -0.714247 -0.620746 -0.323304 0 -0.00134565 0.00134565 0.00430322 -0.00134565 
0.638879 0.0283914 0.178439 -0.683161 -0.673082 -0.283288 0 -0.00245224 0.00245224 0.00396121 -0.00245224 
