# .PCD v.7 - Point Cloud Data file format
VERSION .7
FIELDS x y z normal_x normal_y normal_z curvature rgb
SIZE 4 4 4 4 4 4 4 4
TYPE F F F F F F F U
COUNT 1 1 1 1 1 1 1 1
WIDTH 594
HEIGHT 1
VIEWPOINT 0 0 0 1 0 0 0
POINTS 594
DATA ascii
0.537503 0.0879109 0.0600261 -0.0551444 -0.997997 -0.031001 0.000116751 16711680 
0.564431 0.0862204 0.0616201 -0.0890632 -0.995669 -0.0266771 0.000458544 16711680 
0.589383 0.0827044 0.0614582 -0.24665 -0.968832 -0.0230053 0.0018124 16711680 
0.604963 0.0777164 0.0614141 -0.404841 -0.914365 -0.00637486 0.00351609 16711680 
-0.625942 0.105452 0.0623693 0.758244 -0.651397 -0.0273327 0.00823344 16711680 
-0.611505 0.118361 0.0609705 0.542031 -0.838237 -0.0596687 0.00849969 16711680 
-0.596994 0.124608 0.0683758 0.320683 -0.945091 -0.0629733 0.00591364 16711680 
-0.408452 0.124456 0.0666138 -0.0597258 -0.996815 -0.0528466 9.74608e-05 16711680 
-0.385151 0.123107 0.0647561 -0.0465976 -0.997811 -0.0469132 8.73116e-05 16711680 
-0.360161 0.122285 0.0645389 -0.048834 -0.997711 -0.0467736 8.43727e-05 16711680 
-0.336597 0.120604 0.0650428 -0.0836969 -0.995364 -0.0473933 0.00011241 16711680 
-0.310212 0.118474 0.064149 -0.0659049 -0.996711 -0.0471577 0.000391653 16711680 
-0.285222 0.117668 0.0639315 -0.0346633 -0.998099 -0.0509647 0.00042618 16711680 
-0.260239 0.116363 0.0637243 -0.0617993 -0.99672 -0.0522475 0.000158281 16711680 
-0.235259 0.114824 0.0635218 -0.0522636 -0.997126 -0.0548458 0.000453129 16711680 
-0.210274 0.113677 0.0633113 -0.0391408 -0.998195 -0.0455427 0.000514986 16711680 
-0.185281 0.113062 0.0630899 -0.0318511 -0.998921 -0.0337973 0.000495781 16711680 
-0.160292 0.11219 0.0628737 -0.038932 -0.998867 -0.0273661 0.000523327 16711680 
-0.135304 0.111201 0.06266 -0.0351688 -0.999149 -0.0215582 0.00038775 16711680 
-0.110315 0.110304 0.0624443 -0.00948848 -0.999741 -0.0206673 0.000325418 16711680 
-0.0853154 0.110189 0.0622126 -0.0146337 -0.999683 -0.0204773 0.00037782 16711680 
-0.0603192 0.109817 0.0619862 -0.0184987 -0.999625 -0.0201759 0.000415037 16711680 
-0.0353303 0.108928 0.0617704 -0.0334004 -0.99906 -0.0276475 0.000410676 16711680 
-0.0103379 0.10828 0.0615496 -0.0285403 -0.998778 -0.0403389 0.000413741 16711680 
0.014648 0.107183 0.0613381 -0.0270973 -0.998622 -0.0449347 0.000245589 16711680 
0.039648 0.107069 0.0611064 -0.041394 -0.998388 -0.0388287 0.000412344 16711680 
0.0659597 0.105078 0.0605173 -0.043856 -0.99864 -0.0281869 0.000509142 16711680 
0.0897277 0.104688 0.0604486 -0.0368206 -0.99897 -0.0265063 0.000347688 16711680 
0.114601 0.103393 0.0604797 -0.0390382 -0.998595 -0.0358433 0.000221732 16711680 
0.139588 0.102371 0.0602666 -0.0392788 -0.998676 -0.0332255 0.000367705 16711680 
0.166027 0.101674 0.0621767 -0.0264237 -0.999252 -0.0282186 0.000481383 16711680 
0.189612 0.100645 0.0648348 -0.0312657 -0.999158 -0.0265747 0.000481856 16711680 
0.214608 0.100284 0.0646081 -0.019764 -0.999313 -0.0313619 0.00051935 16711680 
0.234521 0.100467 0.0544155 -0.0356492 -0.99847 -0.0422633 0.000267443 16711680 
-0.583908 0.127454 0.0602765 0.182304 -0.98233 -0.0423504 0.00242714 16711680 
-0.560122 0.129145 0.0612697 0.0424157 -0.9964 -0.0734007 0.00143708 16711680 
-0.535124 0.128856 0.0610416 -0.0164984 -0.994883 -0.0996763 0.00155139 16711680 
-0.510129 0.128434 0.0608162 -0.0325631 -0.995787 -0.0857185 0.00111032 16711680 
-0.485136 0.127844 0.0605942 -0.0326283 -0.997556 -0.0617871 0.000177022 16711680 
-0.460147 0.126972 0.0603781 -0.0334903 -0.997969 -0.0541931 8.59261e-05 16711680 
-0.435157 0.126155 0.0601608 -0.0441388 -0.997705 -0.0513525 0.00010871 16711680 
-0.415166 0.125415 0.0599887 -0.0570762 -0.997303 -0.0461338 9.98663e-05 16711680 
-0.690009 -0.203791 0.0892843 0.47344 -0.880686 -0.0157048 0.0197428 16711680 
0.716846 -0.203752 0.0861151 -0.631083 -0.775713 0.0019059 0.0259504 16711680 
-0.678161 -0.195694 0.0890082 0.750755 -0.660421 -0.014523 0.0145249 16711680 
-0.670171 -0.180993 0.0886334 0.911724 -0.410708 -0.00881342 0.0134565 16711680 
0.707335 -0.191896 0.0859623 -0.877203 -0.480068 -0.00698122 0.0162694 16711680 
-0.667747 -0.164246 0.088269 0.989987 -0.140676 -0.0116619 0.00326983 16711680 
0.701474 -0.162267 0.0862205 -0.996013 -0.0854336 -0.0256911 0.00120658 16711680 
-0.666635 -0.139265 0.0877488 0.999369 -0.0343869 -0.00887855 0.000153606 16711680 
0.700567 -0.139486 0.0869567 -0.998504 -0.0501712 -0.0217641 0.000120894 16711680 
-0.6658 -0.114279 0.0872311 0.999009 -0.0442044 -0.00525322 0.000111321 16711680 
0.69821 -0.113394 0.0894471 -0.989657 -0.140075 -0.0309566 0.000283822 16711680 
-0.664416 -0.0893016 0.0867085 0.997735 -0.0665703 -0.00963292 0.000211468 16711680 
0.693002 -0.0860913 0.0890674 -0.973999 -0.224265 -0.0321257 0.000157579 16711680 
-0.662587 -0.0643303 0.0861819 0.997191 -0.0735763 -0.0139922 0.00012781 16711680 
0.687131 -0.0632414 0.0885275 -0.961116 -0.274346 -0.0314774 0.000226395 16711680 
-0.660647 -0.0393606 0.0856542 0.996364 -0.0837807 -0.0154508 7.69562e-05 16711680 
0.680267 -0.0416794 0.0881518 -0.945975 -0.323356 -0.0239374 0.000254063 16711680 
-0.657855 -0.0116022 0.0871538 0.991721 -0.12716 -0.0178832 0.000280564 16711680 
0.67035 -0.0152452 0.0877052 -0.926883 -0.375089 -0.0140118 0.000103416 16711680 
-0.65454 0.0106496 0.0895778 0.98621 -0.163479 -0.0257731 0.00012205 16711680 
0.658517 0.0117703 0.0872647 -0.904276 -0.426787 -0.01178 0.000225713 16711680 
-0.651324 0.0289008 0.0875082 0.98028 -0.195247 -0.0304924 0.000259495 16711680 
-0.648372 0.0422591 0.0905422 0.975412 -0.217036 -0.0382937 0.000245636 16711680 
0.642952 0.0416094 0.0868016 -0.842553 -0.538348 -0.0169074 0.00140437 16711680 
0.651034 0.0272626 0.0870187 -0.887762 -0.460119 -0.0129931 0.00023646 16711680 
-0.6447 0.0579709 0.0885201 0.964628 -0.260444 -0.0407749 0.000308331 16711680 
0.619944 0.0684342 0.0864696 -0.580769 -0.813441 -0.0319624 0.0048675 16711680 
0.632938 0.0560921 0.0865998 -0.757227 -0.652655 -0.025469 0.00296182 16711680 
-0.63561 0.08576 0.0889238 0.900062 -0.4311 -0.063575 0.0024413 16711680 
0.189863 0.0991742 0.0948701 -0.0250605 -0.998468 -0.0493422 0.000419383 16711680 
0.211507 0.0995808 0.0913249 -0.0161527 -0.999026 -0.0410555 0.000490679 16711680 
0.239811 0.0984604 0.0894157 -0.0416852 -0.998267 -0.0415307 0.00038584 16711680 
0.2648 0.0975713 0.0891999 -0.0374023 -0.998024 -0.0504845 0.000306487 16711680 
0.289789 0.0966739 0.0889843 -0.0467139 -0.997563 -0.0518171 0.000309442 16711680 
0.314771 0.0952933 0.0887786 -0.0479947 -0.997804 -0.0456548 0.000472545 16711680 
0.33976 0.0944376 0.0885621 -0.0387477 -0.998728 -0.0322563 0.000517188 16711680 
0.364752 0.0937651 0.0883418 -0.00501344 -0.999409 -0.0340074 0.000318214 16711680 
0.389755 0.0939007 0.088105 -0.0232281 -0.998958 -0.0392966 0.000188722 16711680 
0.414741 0.0927868 0.0878938 -0.052008 -0.997992 -0.0361528 0.000116143 16711680 
0.439721 0.0912395 0.0876915 -0.0541869 -0.997722 -0.0401943 9.58704e-05 16711680 
0.463592 0.0900216 0.0883131 -0.0492372 -0.997749 -0.045535 8.31591e-05 16711680 
0.488131 0.0891274 0.0835519 -0.0414543 -0.99816 -0.0442539 9.15712e-05 16711680 
0.514675 0.0876643 0.0870628 -0.047138 -0.997732 -0.0480441 6.0253e-05 16711680 
0.539661 0.086567 0.0868512 -0.052373 -0.997351 -0.0504715 8.59137e-05 16711680 
0.564639 0.0848865 0.0866517 -0.0901339 -0.994375 -0.0556208 0.000434853 16711680 
0.5896 0.0820064 0.0864768 -0.244982 -0.968701 -0.0400211 0.00206315 16711680 
0.604084 0.0777674 0.0845672 -0.392027 -0.919277 -0.0352776 0.00363937 16711680 
-0.625271 0.104562 0.0844534 0.759162 -0.647059 -0.0706237 0.00675905 16711680 
-0.614664 0.11391 0.0863084 0.591114 -0.8017 -0.0886612 0.00749746 16711680 
-0.593815 0.124484 0.0853262 0.297979 -0.95037 -0.0894687 0.0050119 16711680 
-0.438269 0.124658 0.0868938 -0.0500903 -0.99595 -0.0746675 0.000146131 16711680 
-0.413922 0.1232 0.0903199 -0.0466161 -0.996071 -0.0753006 0.000122141 16711680 
-0.388539 0.122042 0.0888256 -0.0439451 -0.996901 -0.0652483 9.42946e-05 16711680 
-0.363418 0.120985 0.0879102 -0.0490921 -0.996848 -0.0623222 6.49374e-05 16711680 
-0.337843 0.119473 0.0879647 -0.0771013 -0.995164 -0.0608535 9.07626e-05 16711680 
-0.313743 0.117139 0.090466 -0.066291 -0.996305 -0.0546046 0.000265707 16711680 
-0.286278 0.116159 0.0877282 -0.0363952 -0.997991 -0.0518543 0.000350138 16711680 
-0.262163 0.114854 0.0902083 -0.0566126 -0.997156 -0.0497406 0.000195189 16711680 
-0.236313 0.113435 0.087316 -0.0487299 -0.997756 -0.0459239 0.000466572 16711680 
-0.212192 0.112629 0.0897859 -0.0331411 -0.998366 -0.0465572 0.000479261 16711680 
-0.186335 0.111661 0.0868843 -0.0339508 -0.998157 -0.0502936 0.000310282 16711680 
-0.162216 0.11066 0.0893582 -0.0283983 -0.998489 -0.0470346 0.00023302 16711680 
-0.135092 0.110123 0.0876863 -0.0256356 -0.999129 -0.0329279 0.000266091 16711680 
-0.110099 0.109589 0.0874632 -0.0175571 -0.999324 -0.0322907 0.000358248 16711680 
-0.0851015 0.109266 0.0872358 -0.0192583 -0.998936 -0.0419049 0.000405631 16711680 
-0.0601006 0.109227 0.0870025 -0.0224859 -0.99862 -0.0474708 0.000448858 16711680 
-0.0341633 0.107516 0.0888035 -0.0380545 -0.997919 -0.0520502 0.000323431 16711680 
-0.00933048 0.107079 0.0907021 -0.0249273 -0.998766 -0.0429463 0.000332617 16711680 
0.0143301 0.106172 0.0863911 -0.0362764 -0.998434 -0.0425768 0.000266638 16711680 
0.0398371 0.10553 0.0843669 -0.0361861 -0.99782 -0.0551816 0.000246932 16711680 
0.0637176 0.104564 0.0843654 -0.0385261 -0.998201 -0.0459368 0.000463535 16711680 
0.0898318 0.103809 0.0857094 -0.0398328 -0.998407 -0.0399499 0.000341961 16711680 
0.114814 0.102432 0.0855036 -0.0393933 -0.998629 -0.0344687 0.000204411 16711680 
0.139805 0.101698 0.0852846 -0.0359337 -0.998806 -0.0331096 0.000270887 16711680 
0.163557 0.100931 0.0863282 -0.0263102 -0.998918 -0.0383379 0.00037268 16711680 
0.189788 0.10027 0.0848458 -0.0290911 -0.99901 -0.0336586 0.000579069 16711680 
0.218155 0.100384 0.0879121 -0.0280006 -0.999028 -0.0340433 0.000624195 16711680 
-0.584936 0.126296 0.0865664 0.181045 -0.980496 -0.0764939 0.0022343 16711680 
-0.564915 0.12771 0.0863501 0.0469799 -0.996027 -0.0756534 0.00060412 16711680 
-0.53992 0.12728 0.0861249 -0.0169917 -0.997106 -0.0740971 0.000119525 16711680 
-0.514923 0.126932 0.085898 -0.0181008 -0.997485 -0.0685211 5.62905e-05 16711680 
-0.489928 0.126468 0.0856735 -0.0225542 -0.997612 -0.0652835 3.83236e-05 16711680 
-0.464935 0.125887 0.0854513 -0.0317791 -0.997477 -0.0634822 9.91999e-05 16711680 
-0.44499 0.125151 0.0802784 -0.0478455 -0.996779 -0.0643655 0.000152343 16711680 
-0.688903 -0.203782 0.111619 0.515621 -0.855879 -0.0400748 0.020718 16711680 
0.715881 -0.203225 0.11112 -0.630116 -0.776501 3.69444e-05 0.0262136 16711680 
-0.677509 -0.195665 0.114008 0.735468 -0.671989 -0.0867074 0.0149192 16711680 
-0.669425 -0.182438 0.115083 0.882533 -0.458693 -0.103621 0.0179792 16711680 
0.706858 -0.191748 0.11097 -0.878559 -0.476105 -0.038173 0.0151115 16711680 
-0.666818 -0.163746 0.113256 0.985896 -0.144445 -0.0845301 0.00377169 16711680 
0.701 -0.166205 0.110548 -0.993263 -0.109319 -0.038444 0.0025319 16711680 
-0.665884 -0.138762 0.112738 0.995556 -0.0329305 -0.0882302 0.000381097 16711680 
0.699313 -0.132894 0.114841 -0.995382 -0.0813661 -0.0509357 0.000157686 16711680 
0.700226 -0.143009 0.110038 -0.998197 -0.0498118 -0.0334858 0.000249432 16711680 
-0.664933 -0.113778 0.112219 0.994312 -0.0498914 -0.0940963 0.00040966 16711680 
0.697072 -0.112864 0.114453 -0.988099 -0.143847 -0.0544826 0.000358024 16711680 
-0.663407 -0.0888026 0.111695 0.992781 -0.069463 -0.0977777 0.000544376 16711680 
0.692458 -0.0877345 0.113984 -0.973909 -0.220924 -0.0519128 0.000206733 16711680 
-0.661614 -0.0638308 0.111169 0.992445 -0.0757512 -0.0965144 0.000451534 16711680 
0.685054 -0.0594784 0.113723 -0.960041 -0.275781 -0.0475981 0.000185284 16711680 
-0.65968 -0.0388611 0.110641 0.99233 -0.0814962 -0.0929532 0.000588398 16711680 
0.678218 -0.0376039 0.113094 -0.946646 -0.319973 -0.0384408 0.000265673 16711680 
-0.656735 -0.0115679 0.111307 0.987041 -0.130479 -0.0934099 0.000529364 16711680 
0.669809 -0.0147616 0.112885 -0.927927 -0.37151 -0.030531 0.000232006 16711680 
-0.652898 0.0111395 0.114559 0.978129 -0.172751 -0.115847 0.000409856 16711680 
0.657959 0.0128058 0.111346 -0.90322 -0.428362 -0.0264642 0.00030281 16711680 
-0.650618 0.0260027 0.109233 0.97644 -0.192538 -0.0974393 0.000294276 16711680 
-0.646804 0.0407867 0.116197 0.964238 -0.226176 -0.138165 0.000793602 16711680 
0.642517 0.041585 0.111835 -0.835309 -0.548776 -0.0332173 0.00122418 16711680 
0.650701 0.0277807 0.112018 -0.880152 -0.473695 -0.0307385 0.000324654 16711680 
-0.641661 0.0615114 0.113426 0.943607 -0.300007 -0.140008 0.000947161 16711680 
0.619271 0.0676461 0.111498 -0.560415 -0.826209 -0.0575655 0.00491767 16711680 
0.632396 0.0559216 0.111615 -0.74724 -0.66296 -0.046008 0.00333855 16711680 
-0.631914 0.086235 0.113302 0.867742 -0.466258 -0.172125 0.00281513 16711680 
-0.624748 0.0959347 0.122568 0.788448 -0.576301 -0.215005 0.00474628 16711680 
0.160053 0.0999093 0.115139 -0.0242509 -0.997633 -0.0643451 0.000625961 16711680 
0.190037 0.0986158 0.114885 -0.0277554 -0.997604 -0.0633657 0.000401427 16711680 
0.212168 0.0986023 0.113249 -0.0231106 -0.997221 -0.0708258 0.00044347 16711680 
0.236285 0.0974622 0.115726 -0.0371857 -0.996534 -0.0744065 0.00042077 16711680 
0.262146 0.0968623 0.112817 -0.0360388 -0.997705 -0.0573245 0.000320379 16711680 
0.286257 0.0953009 0.115302 -0.0414268 -0.997662 -0.0543593 0.000309282 16711680 
0.313729 0.0947709 0.112555 -0.0348199 -0.998636 -0.0389131 0.000402753 16711680 
0.337845 0.0936148 0.115032 -0.0363476 -0.998425 -0.0427413 0.000504622 16711680 
0.364679 0.0929686 0.113365 -0.0243523 -0.998292 -0.0531126 0.000326114 16711680 
0.386793 0.0921071 0.118077 -0.0279311 -0.997305 -0.0678427 0.000166991 16711680 
0.414352 0.0913459 0.11245 -0.0500968 -0.996342 -0.0692316 0.000109885 16711680 
0.438978 0.0901568 0.111177 -0.0527318 -0.996812 -0.0598772 0.000101963 16711680 
0.464914 0.0887306 0.112513 -0.0497718 -0.997297 -0.054043 4.97282e-05 16711680 
0.489899 0.0875472 0.112303 -0.044105 -0.997597 -0.0534312 3.52047e-05 16711680 
0.514885 0.0865193 0.11209 -0.0476299 -0.99733 -0.0553481 4.04192e-05 16711680 
0.539869 0.0852359 0.111883 -0.0595747 -0.996478 -0.0590065 7.095e-05 16711680 
0.564846 0.0834971 0.111684 -0.0976056 -0.993164 -0.0640166 0.000368198 16711680 
0.592257 0.0796169 0.111977 -0.262231 -0.96295 -0.0629392 0.00263633 16711680 
0.604743 0.0759965 0.111464 -0.379823 -0.922579 -0.0676905 0.00292138 16711680 
-0.625137 0.102529 0.102432 0.772949 -0.622857 -0.120823 0.00598802 16711680 
-0.611374 0.112569 0.112893 0.587298 -0.792235 -0.165667 0.00665254 16711680 
-0.588365 0.123216 0.10898 0.240376 -0.96176 -0.131288 0.00416537 16711680 
-0.566491 0.124554 0.116062 0.0672788 -0.991011 -0.115631 0.000690556 16711680 
-0.538677 0.124525 0.117237 -0.00808558 -0.995586 -0.0935 8.38812e-05 16711680 
-0.513235 0.124311 0.118644 -0.0156475 -0.99557 -0.0927157 6.14269e-05 16711680 
-0.489683 0.124104 0.116477 -0.0177148 -0.995898 -0.0887366 8.46637e-05 16711680 
-0.46274 0.12368 0.112216 -0.0352678 -0.995956 -0.0826355 0.000148375 16711680 
-0.438176 0.122858 0.108591 -0.0559031 -0.994886 -0.0841219 0.000101848 16711680 
-0.416007 0.12143 0.111341 -0.0436496 -0.995486 -0.0842793 7.80202e-05 16711680 
-0.389736 0.120358 0.114868 -0.0410476 -0.995634 -0.0838279 8.32186e-05 16711680 
-0.364749 0.119344 0.114655 -0.0450688 -0.995698 -0.0809545 0.000132294 16711680 
-0.339766 0.118047 0.114447 -0.0752899 -0.994091 -0.0781906 0.000224817 16711680 
-0.314795 0.1159 0.114257 -0.0613451 -0.995065 -0.0779873 0.000228341 16711680 
-0.289808 0.114836 0.114045 -0.0391551 -0.996162 -0.0782777 0.000147386 16711680 
-0.264823 0.113655 0.113835 -0.0567011 -0.99473 -0.0854273 0.000243451 16711680 
-0.239837 0.112549 0.113624 -0.0476338 -0.995161 -0.0859431 0.000332594 16711680 
-0.213593 0.110792 0.115414 -0.0348129 -0.995586 -0.0871567 0.000311606 16711680 
-0.188531 0.110054 0.116095 -0.0296461 -0.995815 -0.0864467 0.000282567 16711680 
-0.162898 0.109595 0.115383 -0.0198802 -0.996628 -0.0796088 0.000249087 16711680 
-0.139856 0.109372 0.115003 -0.0164757 -0.997122 -0.0740076 0.000417843 16711680 
-0.114997 0.108856 0.114181 -0.0255436 -0.997123 -0.0713608 0.000482829 16711680 
-0.089908 0.107852 0.110866 -0.0318357 -0.99713 -0.0686928 0.000366773 16711680 
-0.0653885 0.10751 0.109863 -0.0237596 -0.997071 -0.0726971 0.000353223 16711680 
-0.0409202 0.10673 0.11052 -0.0402431 -0.996754 -0.0697253 0.000310353 16711680 
-0.0149171 0.105964 0.111652 -0.0210332 -0.997611 -0.0658019 0.000349135 16711680 
0.0100766 0.105417 0.11143 -0.0438816 -0.99678 -0.067116 0.000339964 16711680 
0.0350603 0.104153 0.111222 -0.0370629 -0.997021 -0.0676399 0.000266641 16711680 
0.0600516 0.10343 0.111002 -0.0304485 -0.997521 -0.0634458 0.000308334 16711680 
0.0850443 0.102808 0.110781 -0.0285336 -0.998149 -0.0537092 0.000296849 16711680 
0.113026 0.102065 0.109534 -0.036721 -0.997943 -0.0525454 0.000280879 16711680 
0.137031 0.101005 0.111331 -0.0389087 -0.997463 -0.0596184 0.00043149 16711680 
0.164969 0.100351 0.105082 -0.0297942 -0.998616 -0.043343 0.000295496 16711680 
0.175056 0.100046 0.114996 -0.030324 -0.998092 -0.0537768 0.000398043 16711680 
-0.562768 0.1259 0.105372 0.0388766 -0.994296 -0.0993205 0.0004554 16711680 
-0.541439 0.12597 0.104504 -0.00831286 -0.995989 -0.0890913 0.000104 16711680 
-0.516771 0.125545 0.104948 -0.0145654 -0.99642 -0.083279 6.95885e-05 16711680 
-0.489807 0.125399 0.100698 -0.0214473 -0.99689 -0.0758272 4.29811e-05 16711680 
-0.47481 0.125186 0.100562 -0.0264224 -0.996569 -0.0784384 9.27199e-05 16711680 
-0.684815 -0.203209 0.140487 0.514575 -0.850818 -0.106404 0.0190186 16711680 
0.713344 -0.201894 0.138123 -0.681271 -0.727415 -0.0820788 0.0246875 16711680 
-0.679193 -0.198858 0.129093 0.676042 -0.726622 -0.122428 0.0170939 16711680 
-0.668991 -0.188577 0.138779 0.804227 -0.573827 -0.15473 0.0169722 16711680 
0.703369 -0.18651 0.134929 -0.90114 -0.423184 -0.0941398 0.0129402 16711680 
-0.663246 -0.163283 0.13822 0.971595 -0.133642 -0.195302 0.00266393 16711680 
0.699023 -0.160353 0.141411 -0.989043 -0.087918 -0.118589 0.00127955 16711680 
0.700449 -0.16515 0.127992 -0.992174 -0.111106 -0.0569727 0.00283737 16711680 
-0.662 -0.138304 0.137698 0.977311 -0.039218 -0.208146 0.000229354 16711680 
0.698115 -0.138425 0.136971 -0.989658 -0.0780952 -0.120327 0.000555029 16711680 
-0.660999 -0.113321 0.137179 0.97714 -0.0520142 -0.206134 0.000431197 16711680 
0.69433 -0.10962 0.140844 -0.979999 -0.147541 -0.133539 0.000622716 16711680 
-0.658789 -0.0885238 0.139798 0.973685 -0.0694837 -0.217047 0.000503995 16711680 
0.691186 -0.0891446 0.136997 -0.971416 -0.208828 -0.112878 0.000398245 16711680 
-0.65762 -0.0626679 0.136807 0.97466 -0.0742181 -0.211021 0.000588418 16711680 
0.683709 -0.061346 0.139511 -0.958285 -0.265367 -0.106158 0.000328203 16711680 
-0.656255 -0.038416 0.134656 0.97647 -0.0838062 -0.198701 0.000727658 16711680 
0.673881 -0.0289289 0.139631 -0.939051 -0.330648 -0.0941064 0.000470996 16711680 
0.677313 -0.0387784 0.136466 -0.948168 -0.306945 -0.0822285 0.000310414 16711680 
-0.654455 -0.0178694 0.132981 0.973359 -0.122867 -0.193588 0.000511872 16711680 
-0.649962 -0.00328465 0.144833 0.958016 -0.14281 -0.248619 0.000572813 16711680 
0.666262 -0.00888547 0.136771 -0.922476 -0.378598 -0.0755103 0.000286881 16711680 
-0.650615 0.00651821 0.134637 0.964937 -0.164031 -0.204916 0.000140199 16711680 
-0.647118 0.0151579 0.14273 0.951573 -0.185484 -0.245162 0.000412262 16711680 
0.65549 0.0153089 0.137033 -0.897306 -0.434983 -0.0750413 0.000411423 16711680 
-0.644278 0.0347568 0.13718 0.94676 -0.225421 -0.229851 0.000480135 16711680 
0.642143 0.0390101 0.138275 -0.824888 -0.557778 -0.0918865 0.00169047 16711680 
-0.635866 0.0621969 0.139202 0.907349 -0.324896 -0.26676 0.000790823 16711680 
0.615888 0.0672693 0.137704 -0.537331 -0.836488 -0.107532 0.00462452 16711680 
0.630925 0.0548977 0.136656 -0.72148 -0.68542 -0.098313 0.00435627 16711680 
-0.627436 0.0836446 0.137631 0.840799 -0.462809 -0.280828 0.00226739 16711680 
-0.619628 0.0937583 0.141869 0.759868 -0.57571 -0.301924 0.00369506 16711680 
0.065316 0.0996244 0.146039 -0.0286296 -0.997694 -0.0615319 0.000391283 16711680 
0.0853169 0.0996062 0.145853 -0.0393405 -0.996457 -0.0743422 0.00052586 16711680 
0.11026 0.0987068 0.140636 -0.0379847 -0.994954 -0.0928677 0.000525543 16711680 
0.136479 0.0987815 0.136638 -0.0373066 -0.994879 -0.09394 0.000451575 16711680 
0.160207 0.097918 0.135183 -0.0215851 -0.995317 -0.0942292 0.000458697 16711680 
0.183796 0.097248 0.137834 -0.0287555 -0.99561 -0.0890734 0.000414979 16711680 
0.210228 0.0959837 0.139756 -0.0334966 -0.995894 -0.0841052 0.000576622 16711680 
0.237275 0.0946261 0.141111 -0.0326259 -0.995201 -0.0922568 0.000690225 16711680 
0.263199 0.0945691 0.141623 -0.0319522 -0.994582 -0.0989255 0.000648128 16711680 
0.285205 0.0936926 0.139712 -0.0300203 -0.995142 -0.093759 0.000652739 16711680 
0.308777 0.0933831 0.140837 -0.0253658 -0.995775 -0.0882494 0.000463153 16711680 
0.335689 0.0924168 0.136914 -0.0415305 -0.995191 -0.0887182 0.000263304 16711680 
0.360145 0.091607 0.135157 -0.0324311 -0.996175 -0.0811397 0.000243602 16711680 
0.385165 0.0907849 0.138224 -0.0290597 -0.996862 -0.0736323 0.000157151 16711680 
0.410151 0.0896626 0.138013 -0.0451653 -0.996719 -0.0671691 9.77976e-05 16711680 
0.43514 0.0887735 0.137797 -0.0440115 -0.997158 -0.0611439 8.86343e-05 16711680 
0.460123 0.0875263 0.137589 -0.0435183 -0.997523 -0.0552716 8.39765e-05 16711680 
0.485108 0.0863456 0.137379 -0.0454475 -0.997773 -0.0488132 6.77182e-05 16711680 
0.510095 0.0853149 0.137166 -0.04814 -0.997615 -0.0494682 4.12204e-05 16711680 
0.535078 0.0839676 0.13696 -0.0636461 -0.996415 -0.0557313 5.08072e-05 16711680 
0.563042 0.0819758 0.135738 -0.100231 -0.992628 -0.0681386 0.000291498 16711680 
0.586898 0.0790349 0.137813 -0.226198 -0.969413 -0.0952541 0.0020396 16711680 
-0.610804 0.106416 0.135927 0.632281 -0.725313 -0.27229 0.00520515 16711680 
-0.592417 0.117337 0.137504 0.39133 -0.894332 -0.216866 0.00727124 16711680 
-0.564536 0.122399 0.136468 0.0915476 -0.986956 -0.132425 0.00118074 16711680 
-0.539527 0.122976 0.136222 -0.000403071 -0.995206 -0.097799 0.000125903 16711680 
-0.514531 0.122587 0.135996 -0.016779 -0.995332 -0.0950364 6.74185e-05 16711680 
-0.489537 0.122015 0.135773 -0.0176229 -0.994992 -0.0983933 8.01952e-05 16711680 
-0.464536 0.122025 0.135539 -0.0298361 -0.995174 -0.0934843 0.000155162 16711680 
-0.439555 0.120553 0.135335 -0.0543764 -0.9947 -0.0872599 0.000109627 16711680 
-0.414571 0.119297 0.135127 -0.0427288 -0.995343 -0.0864085 5.91544e-05 16711680 
-0.389545 0.117811 0.139924 -0.0451659 -0.994793 -0.0913629 4.41169e-05 16711680 
-0.364558 0.116816 0.139711 -0.0423966 -0.994522 -0.0955462 7.21497e-05 16711680 
-0.339574 0.115583 0.139502 -0.0673489 -0.993825 -0.088181 0.000178488 16711680 
-0.314599 0.113716 0.139306 -0.0529797 -0.995787 -0.0748397 0.000175751 16711680 
-0.28961 0.112821 0.13909 -0.0431478 -0.996621 -0.0698851 0.000117026 16711680 
-0.264288 0.111378 0.139129 -0.0579049 -0.996081 -0.0668594 0.000283914 16711680 
-0.239492 0.110373 0.134106 -0.0461668 -0.996386 -0.0712953 0.000372715 16711680 
-0.21567 0.109024 0.137245 -0.0354221 -0.997067 -0.0678421 0.000343205 16711680 
-0.189664 0.108582 0.138241 -0.0223761 -0.997838 -0.0617888 0.000455151 16711680 
-0.164676 0.107571 0.138028 -0.0236933 -0.997765 -0.0624795 0.000442654 16711680 
-0.139678 0.107387 0.137798 -0.0170638 -0.997446 -0.0693514 0.00052007 16711680 
-0.114689 0.10647 0.137582 -0.0307315 -0.996778 -0.0740938 0.00056114 16711680 
-0.089696 0.105859 0.137361 -0.0294075 -0.996851 -0.0736406 0.000481585 16711680 
-0.0647038 0.105203 0.13714 -0.0303165 -0.997137 -0.0692762 0.000391354 16711680 
-0.0397179 0.104097 0.136929 -0.0279204 -0.997186 -0.0695787 0.000432888 16711680 
-0.0147188 0.103936 0.136698 -0.0261063 -0.996909 -0.0741006 0.000414387 16711680 
0.0102622 0.102486 0.136494 -0.043893 -0.995788 -0.0804952 0.000493053 16711680 
0.0352597 0.102202 0.136266 -0.031383 -0.996681 -0.0751075 0.000360462 16711680 
0.0592309 0.101344 0.134058 -0.0322182 -0.996577 -0.0761335 0.000309462 16711680 
0.0852048 0.101316 0.130815 -0.0327161 -0.995053 -0.093808 0.000316397 16711680 
0.110156 0.100975 0.125587 -0.0338519 -0.994874 -0.0952902 0.000412662 16711680 
0.125144 0.100062 0.125465 -0.0316549 -0.994331 -0.101506 0.000534997 16711680 
-0.681396 -0.203895 0.163439 0.459312 -0.873111 -0.163431 0.0189836 16711680 
0.710834 -0.20245 0.160003 -0.636805 -0.756694 -0.147968 0.0224963 16711680 
-0.663212 -0.188932 0.164887 0.7728 -0.567753 -0.283614 0.0179055 16711680 
0.697982 -0.181946 0.160866 -0.905803 -0.386722 -0.173108 0.0133167 16711680 
0.701493 -0.191914 0.161056 -0.829587 -0.532951 -0.166578 0.0167461 16711680 
-0.657287 -0.163401 0.160912 0.937349 -0.150419 -0.314248 0.00366546 16711680 
0.694747 -0.16059 0.163461 -0.9655 -0.0982286 -0.241168 0.00167974 16711680 
-0.656328 -0.137931 0.159743 0.947698 -0.0445513 -0.316044 0.00086015 16711680 
0.692764 -0.135252 0.164213 -0.963331 -0.0865278 -0.25398 0.000816914 16711680 
-0.655522 -0.112959 0.158559 0.947356 -0.05443 -0.315521 0.000899825 16711680 
0.690549 -0.112677 0.162539 -0.961952 -0.136358 -0.236758 0.000748394 16711680 
-0.652865 -0.087926 0.161591 0.941192 -0.0752988 -0.329374 0.000447407 16711680 
-0.647119 -0.0827311 0.174935 0.903993 -0.0812773 -0.419751 0.000688393 16711680 
0.685147 -0.0858511 0.166189 -0.948636 -0.199324 -0.245683 0.000837379 16711680 
-0.652123 -0.0654903 0.158626 0.945238 -0.0752959 -0.317578 0.000896993 16711680 
-0.647601 -0.0608388 0.169031 0.919678 -0.0752477 -0.385397 0.00102276 16711680 
0.674902 -0.0513231 0.17342 -0.928598 -0.261194 -0.263596 0.000626054 16711680 
0.681211 -0.0649135 0.161581 -0.94693 -0.246169 -0.206698 0.000706628 16711680 
-0.65111 -0.0380591 0.155556 0.952136 -0.0747059 -0.296406 0.000576215 16711680 
-0.647007 -0.0378906 0.166567 0.923605 -0.0760168 -0.375734 0.00112962 16711680 
0.672838 -0.0367865 0.16334 -0.931906 -0.299175 -0.20505 0.000823779 16711680 
0.676555 -0.0417584 0.153205 -0.945971 -0.289096 -0.14684 0.000710777 16711680 
-0.645507 -0.0129554 0.163252 0.929671 -0.127541 -0.345608 0.000756749 16711680 
0.663824 -0.0115142 0.162678 -0.914348 -0.359965 -0.185452 0.000628119 16711680 
-0.641456 0.0111633 0.163052 0.921337 -0.178938 -0.345136 0.000623751 16711680 
0.64839 0.0190467 0.172232 -0.858473 -0.457532 -0.23171 0.000944734 16711680 
0.654174 0.0119082 0.161977 -0.890051 -0.422037 -0.172319 0.000790215 16711680 
-0.635313 0.036998 0.163894 0.894355 -0.253495 -0.368605 0.00100323 16711680 
0.639308 0.0378181 0.162213 -0.80421 -0.565301 -0.183524 0.00182438 16711680 
-0.628142 0.0603258 0.162025 0.856552 -0.344436 -0.384295 0.000917634 16711680 
-0.622022 0.0619264 0.173249 0.822391 -0.356783 -0.443147 0.00072941 16711680 
0.596462 0.0716453 0.168311 -0.366033 -0.914436 -0.172707 0.00291703 16711680 
0.614455 0.0635117 0.160927 -0.547335 -0.816302 -0.184594 0.00356358 16711680 
-0.625175 0.0768318 0.153269 0.839447 -0.416575 -0.34899 0.00144912 16711680 
-0.612004 0.0885484 0.164947 0.726639 -0.550784 -0.410649 0.00296486 16711680 
0.0621335 0.0996119 0.16274 -0.037186 -0.996431 -0.0757826 0.00035065 16711680 
0.0854453 0.0990625 0.160866 -0.0389187 -0.996831 -0.0693788 0.000360078 16711680 
0.111448 0.097412 0.163397 -0.0402754 -0.996566 -0.072349 0.000427406 16711680 
0.135435 0.0964532 0.162997 -0.0324147 -0.997069 -0.0693027 0.000328702 16711680 
0.161029 0.095992 0.162693 -0.0289409 -0.997132 -0.0699264 0.000275944 16711680 
0.188285 0.0951134 0.159645 -0.0174584 -0.997642 -0.0663791 0.000461055 16711680 
0.212416 0.0949991 0.164182 -0.032967 -0.997612 -0.0606918 0.000656656 16711680 
0.234407 0.0933113 0.16329 -0.0435049 -0.996971 -0.0644699 0.000638481 16711680 
0.259684 0.0930553 0.162344 -0.0294353 -0.996915 -0.0727608 0.000635233 16711680 
0.285395 0.0914022 0.164152 -0.0276373 -0.996828 -0.0746385 0.000516966 16711680 
0.310393 0.0912129 0.163922 -0.0295309 -0.996464 -0.078661 0.000346894 16711680 
0.33538 0.0901462 0.16371 -0.0412444 -0.996383 -0.0742944 0.000142203 16711680 
0.360367 0.0891516 0.163496 -0.0211238 -0.997296 -0.0703896 0.000174457 16711680 
0.385369 0.0891567 0.163262 -0.0203967 -0.997586 -0.0663802 0.000210796 16711680 
0.410359 0.0883231 0.163045 -0.0420993 -0.997055 -0.0641021 0.000142057 16711680 
0.435342 0.0870231 0.162837 -0.0440758 -0.996809 -0.0665568 9.81643e-05 16711680 
0.460333 0.0862785 0.162619 -0.0383081 -0.997012 -0.0670732 8.29929e-05 16711680 
0.485319 0.0852117 0.162407 -0.0433176 -0.996879 -0.0659922 6.68482e-05 16711680 
0.510305 0.0841005 0.162195 -0.0534817 -0.996271 -0.0677105 7.11829e-05 16711680 
0.535283 0.0824672 0.161995 -0.0723988 -0.994686 -0.0731964 6.84643e-05 16711680 
0.55977 0.080341 0.163489 -0.114532 -0.988733 -0.0963832 0.000429279 16711680 
0.580848 0.0779082 0.158438 -0.216986 -0.967974 -0.12627 0.00162155 16711680 
-0.604338 0.105981 0.151646 0.59537 -0.734443 -0.325773 0.00529824 16711680 
-0.589121 0.11116 0.16175 0.448296 -0.830126 -0.331544 0.00573646 16711680 
-0.565638 0.118212 0.162906 0.19579 -0.9515 -0.237305 0.00418765 16711680 
-0.539338 0.120271 0.161281 0.0373824 -0.989029 -0.142911 0.000874921 16711680 
-0.514337 0.120226 0.161048 -0.0117512 -0.993603 -0.112314 0.000148863 16711680 
-0.489345 0.119592 0.160827 -0.0165829 -0.994352 -0.104829 8.6431e-05 16711680 
-0.46435 0.119136 0.160603 -0.0257772 -0.994183 -0.10457 8.509e-05 16711680 
-0.439359 0.118381 0.160384 -0.0393936 -0.994757 -0.0943784 0.000121069 16711680 
-0.414372 0.117303 0.160172 -0.0471786 -0.99505 -0.0874603 4.6491e-05 16711680 
-0.389349 0.11563 0.164973 -0.052172 -0.994164 -0.0944268 4.57119e-05 16711680 
-0.363098 0.114165 0.166995 -0.0485683 -0.993052 -0.107184 0.000100967 16711680 
-0.34035 0.113117 0.166438 -0.051564 -0.993129 -0.105054 0.000102993 16711680 
-0.313708 0.112136 0.162786 -0.0459104 -0.994821 -0.090685 0.000123134 16711680 
-0.289439 0.111238 0.160343 -0.0432678 -0.995629 -0.0827711 0.000101132 16711680 
-0.265867 0.110078 0.161958 -0.052734 -0.995233 -0.0820423 0.000170289 16711680 
-0.239438 0.108671 0.163712 -0.0485206 -0.99523 -0.0846349 0.000171821 16711680 
-0.214455 0.107399 0.163504 -0.0333408 -0.995829 -0.084933 0.000279284 16711680 
-0.18946 0.106959 0.163279 -0.0228502 -0.995423 -0.0927899 0.000397111 16711680 
-0.164465 0.106454 0.163055 -0.0291528 -0.994803 -0.0975592 0.000505274 16711680 
-0.139472 0.105898 0.162832 -0.0162224 -0.995597 -0.0923184 0.00067004 16711680 
-0.114477 0.105392 0.162609 -0.0280808 -0.997023 -0.0718106 0.000737418 16711680 
-0.0894825 0.104911 0.162385 -0.0264186 -0.997866 -0.0597145 0.000570262 16711680 
-0.064493 0.104064 0.162168 -0.0301107 -0.997581 -0.0626541 0.000489701 16711680 
-0.0395023 0.1033 0.16195 -0.0274468 -0.9978 -0.0603462 0.000417292 16711680 
-0.0145103 0.102635 0.161729 -0.0320329 -0.997458 -0.0636569 0.000405287 16711680 
0.0104726 0.101313 0.161522 -0.0442765 -0.996817 -0.0662989 0.000420374 16711680 
0.0354658 0.100724 0.1613 -0.0299783 -0.997096 -0.0699995 0.000303893 16711680 
0.0554208 0.100671 0.156113 -0.0414772 -0.996931 -0.066402 0.000362909 16711680 
-0.683763 -0.20701 0.189317 -0.0223523 0.999744 0.00346762 0.00714434 16711680 
-0.666691 -0.202243 0.18956 0.509921 -0.828088 -0.232919 0.020139 16711680 
0.699879 -0.201252 0.196251 -0.6358 -0.737697 -0.227071 0.0221596 16711680 
0.706119 -0.202985 0.18675 -0.545836 -0.819991 -0.172269 0.0211689 16711680 
-0.657501 -0.191385 0.182284 0.733699 -0.599365 -0.320073 0.0150299 16711680 
-0.648347 -0.184604 0.194029 0.785967 -0.48317 -0.385749 0.0148576 16711680 
0.691936 -0.187103 0.187124 -0.830368 -0.475113 -0.291129 0.0163233 16711680 
0.701445 -0.197885 0.176162 -0.761365 -0.61126 -0.216067 0.0214469 16711680 
-0.651199 -0.167633 0.178206 0.902531 -0.190324 -0.386282 0.00377347 16711680 
-0.645626 -0.161495 0.188671 0.884887 -0.136969 -0.445214 0.00285591 16711680 
0.687515 -0.161836 0.186114 -0.929641 -0.115257 -0.349976 0.00184078 16711680 
-0.645537 -0.137544 0.185978 0.896662 -0.0484542 -0.440057 0.000786146 16711680 
0.684384 -0.136993 0.189971 -0.924756 -0.0788969 -0.372292 0.000745218 16711680 
-0.643035 -0.112537 0.187655 0.887133 -0.0616249 -0.457381 0.000718789 16711680 
0.682216 -0.110509 0.188273 -0.921223 -0.131353 -0.36619 0.000682264 16711680 
-0.641425 -0.0897256 0.187182 0.881052 -0.0782075 -0.466509 0.00063381 16711680 
0.673981 -0.0808682 0.195387 -0.898504 -0.188582 -0.396393 0.000546001 16711680 
0.679751 -0.0886667 0.184914 -0.91951 -0.182811 -0.347969 0.000670259 16711680 
-0.63891 -0.0625843 0.1874 0.879512 -0.0744124 -0.470023 0.000723004 16711680 
0.672335 -0.0611207 0.187998 -0.907296 -0.229336 -0.352447 0.000677939 16711680 
0.676315 -0.0711356 0.183814 -0.917044 -0.217365 -0.33434 0.000693828 16711680 
-0.637648 -0.0376171 0.186291 0.882626 -0.069773 -0.464869 0.000670467 16711680 
0.664539 -0.0348156 0.188972 -0.896193 -0.27886 -0.345072 0.000811542 16711680 
-0.634985 -0.0136247 0.186895 0.87612 -0.120111 -0.466891 0.000688305 16711680 
0.656497 -0.00968234 0.186983 -0.882543 -0.344184 -0.320398 0.00100114 16711680 
-0.629445 0.0127964 0.188557 0.851094 -0.194988 -0.487461 0.000727544 16711680 
0.644686 0.0161162 0.189131 -0.840705 -0.433551 -0.32442 0.00120863 16711680 
0.650442 0.0092239 0.182416 -0.866527 -0.407374 -0.288407 0.000824853 16711680 
-0.625915 0.0356775 0.184023 0.836072 -0.266599 -0.479487 0.000587888 16711680 
-0.618527 0.0406144 0.193239 0.790925 -0.289066 -0.539332 0.000961598 16711680 
0.620502 0.0498511 0.19187 -0.687571 -0.646568 -0.330448 0.00265335 16711680 
0.630945 0.0391612 0.186928 -0.750231 -0.585173 -0.307777 0.00223183 16711680 
-0.612206 0.0627318 0.188984 0.755608 -0.377505 -0.5353 0.00140802 16711680 
0.588867 0.0708212 0.187393 -0.356918 -0.907596 -0.221087 0.00244228 16711680 
0.610222 0.0599422 0.186684 -0.553294 -0.789544 -0.265493 0.00380523 16711680 
-0.6046 0.0815787 0.184988 0.694595 -0.495539 -0.521515 0.00237004 16711680 
-0.591326 0.0936877 0.189184 0.582223 -0.617231 -0.52919 0.00444028 16711680 
-0.0842223 0.0999091 0.198847 -0.0204938 -0.985201 -0.170174 0.000455738 16711680 
-0.0642315 0.0996914 0.197864 -0.0173703 -0.988041 -0.153209 0.000334899 16711680 
-0.0392341 0.0993537 0.197712 -0.0228703 -0.988902 -0.1468 0.000303372 16711680 
-0.0134187 0.0989943 0.195439 -0.0371452 -0.989313 -0.140998 0.000260136 16711680 
0.0107035 0.0984085 0.191537 -0.0374926 -0.990387 -0.133146 0.000298808 16711680 
0.0363598 0.098113 0.186775 -0.0362531 -0.991145 -0.127741 0.000184012 16711680 
0.0606392 0.097249 0.185479 -0.0368267 -0.991583 -0.124126 0.000120657 16711680 
0.0856233 0.0965593 0.184413 -0.0353766 -0.992337 -0.11839 0.000136909 16711680 
0.109767 0.0957629 0.183262 -0.0421133 -0.993217 -0.108381 0.00020733 16711680 
0.135613 0.0946787 0.185492 -0.0321385 -0.993309 -0.110924 0.000209002 16711680 
0.160604 0.0938729 0.185275 -0.030718 -0.99319 -0.112388 0.000190473 16711680 
0.184355 0.0930771 0.186319 -0.0195158 -0.992707 -0.118959 0.00028164 16711680 
0.210629 0.0922301 0.189841 -0.0240303 -0.990315 -0.136742 0.000356963 16711680 
0.23562 0.0914743 0.189623 -0.0303717 -0.992347 -0.119689 0.000438103 16711680 
0.26061 0.0906685 0.189405 -0.0363069 -0.993789 -0.105191 0.000211302 16711680 
0.285598 0.0897129 0.189191 -0.0294034 -0.994106 -0.10435 0.000126762 16711680 
0.310591 0.0891571 0.188968 -0.0318065 -0.993879 -0.105792 0.000130255 16711680 
0.33558 0.0882347 0.188753 -0.0340395 -0.993822 -0.105638 0.000126907 16711680 
0.360573 0.0876705 0.188531 -0.0240052 -0.993951 -0.107172 0.000178163 16711680 
0.385566 0.0870563 0.188309 -0.0228806 -0.993383 -0.11255 0.000169799 16711680 
0.410557 0.0863339 0.18809 -0.0384227 -0.993187 -0.110019 0.00013743 16711680 
0.435542 0.085145 0.18788 -0.047666 -0.993388 -0.104443 0.000104465 16711680 
0.460529 0.0841226 0.187667 -0.0306319 -0.994448 -0.100677 0.000104806 16711680 
0.486955 0.0829595 0.188772 -0.046257 -0.993712 -0.101968 0.000112676 16711680 
0.510863 0.0817822 0.189559 -0.0582053 -0.992329 -0.109066 0.000123092 16711680 
0.535385 0.0806034 0.184908 -0.0793445 -0.991205 -0.105907 0.000243628 16711680 
0.560449 0.0780254 0.186856 -0.158206 -0.976112 -0.148918 0.00140436 16711680 
0.575379 0.0761855 0.181753 -0.221873 -0.964183 -0.145338 0.00159012 16711680 
-0.583664 0.106166 0.181289 0.471249 -0.77017 -0.42984 0.00576507 16711680 
-0.563693 0.111321 0.186157 0.295987 -0.868801 -0.396959 0.00582264 16711680 
-0.538539 0.116341 0.187818 0.109073 -0.951449 -0.287833 0.00400139 16711680 
-0.514143 0.116568 0.188195 0.0250095 -0.976439 -0.214339 0.00212775 16711680 
-0.489132 0.116485 0.189096 0.00145147 -0.985138 -0.17176 0.0010526 16711680 
-0.464136 0.116038 0.189026 -0.0183162 -0.989545 -0.143054 0.00064157 16711680 
-0.439142 0.115591 0.188679 -0.0289808 -0.990106 -0.137299 0.000530291 16711680 
-0.413914 0.114736 0.187217 -0.050965 -0.990044 -0.13121 0.000367934 16711680 
-0.388049 0.113714 0.183719 -0.0580423 -0.99019 -0.127102 0.000231089 16711680 
-0.36519 0.111509 0.188587 -0.0551242 -0.986677 -0.153067 0.000273939 16711680 
-0.339198 0.110071 0.189623 -0.0444781 -0.986538 -0.157368 0.000220084 16711680 
-0.314211 0.109016 0.189411 -0.0451245 -0.986184 -0.15939 0.000402719 16711680 
-0.289221 0.10821 0.189193 -0.0405303 -0.985889 -0.162419 0.000457317 16711680 
-0.264238 0.106904 0.188986 -0.0489058 -0.985984 -0.159512 0.000371325 16711680 
-0.239254 0.105682 0.188777 -0.045484 -0.986453 -0.15761 0.000298895 16711680 
-0.214267 0.104615 0.188565 -0.029772 -0.988054 -0.151202 0.000251878 16711680 
-0.189276 0.103854 0.188347 -0.0262802 -0.989473 -0.142314 0.000184522 16711680 
-0.164286 0.103048 0.188129 -0.0305805 -0.989432 -0.141738 0.000182686 16711680 
-0.13857 0.102081 0.189494 -0.0165537 -0.988683 -0.149103 0.000276164 16711680 
-0.114279 0.101974 0.189829 -0.0124644 -0.987869 -0.154788 0.000288851 16711680 
-0.0900016 0.101619 0.189078 -0.0263057 -0.988531 -0.14871 0.000261885 16711680 
-0.064344 0.101756 0.182219 -0.0234659 -0.992074 -0.123447 0.000105485 16711680 
-0.0393496 0.101258 0.181995 -0.0242829 -0.993055 -0.115114 5.76726e-05 16711680 
-0.0163651 0.100705 0.180791 -0.0338282 -0.993357 -0.109988 7.15218e-05 16711680 
0.0105933 0.100219 0.176547 -0.0399569 -0.994252 -0.0993302 0.000113804 16711680 
-0.683551 -0.208074 0.214343 -0.117618 0.991599 0.0538356 0.00238239 16711680 
-0.65997 -0.203597 0.212787 0.480759 -0.836061 -0.264336 0.0159498 16711680 
-0.648392 -0.201261 0.220676 0.48966 -0.813497 -0.313776 0.021787 16711680 
0.692584 -0.201026 0.213194 -0.597951 -0.761862 -0.249041 0.0219503 16711680 
0.706642 -0.206439 0.211297 -0.452194 -0.874323 -0.176294 0.0126485 16711680 
-0.639154 -0.187962 0.212817 0.703435 -0.545333 -0.455842 0.0145797 16711680 
0.672122 -0.180292 0.22369 -0.778197 -0.36917 -0.508058 0.0142287 16711680 
0.683001 -0.189141 0.211494 -0.76623 -0.523494 -0.37262 0.0176786 16711680 
-0.631912 -0.162288 0.212233 0.817065 -0.142807 -0.558579 0.00265597 16711680 
0.673262 -0.160436 0.217172 -0.856519 -0.114337 -0.503292 0.00202259 16711680 
0.680343 -0.163291 0.204736 -0.891482 -0.134276 -0.432701 0.00277477 16711680 
-0.631259 -0.137243 0.21037 0.820978 -0.0555643 -0.568249 0.000931091 16711680 
0.672359 -0.136866 0.214719 -0.863502 -0.0833249 -0.497414 0.00083276 16711680 
0.677839 -0.13574 0.205123 -0.885715 -0.0897921 -0.455462 0.000815953 16711680 
-0.628568 -0.113489 0.212061 0.807736 -0.0674954 -0.585668 0.000930602 16711680 
-0.624315 -0.102202 0.216629 0.786588 -0.0710936 -0.613372 0.00133824 16711680 
0.667686 -0.10877 0.216901 -0.85109 -0.126234 -0.509619 0.0007798 16711680 
0.67577 -0.115712 0.204733 -0.883215 -0.117353 -0.454048 0.000939024 16711680 
-0.628475 -0.0873011 0.208712 0.818908 -0.0813006 -0.568137 0.000477969 16711680 
-0.61982 -0.0871902 0.220032 0.772794 -0.0776638 -0.629887 0.00101958 16711680 
0.666098 -0.0861492 0.212696 -0.857632 -0.171236 -0.484919 0.000770699 16711680 
-0.62727 -0.0623482 0.206858 0.825898 -0.0698671 -0.559473 0.000405592 16711680 
-0.618643 -0.0622267 0.218678 0.780341 -0.0640093 -0.62207 0.000707319 16711680 
0.660162 -0.059864 0.212776 -0.849635 -0.214283 -0.481875 0.00064316 16711680 
-0.62635 -0.0390467 0.20559 0.828425 -0.0662867 -0.556164 0.000398611 16711680 
-0.617732 -0.0372572 0.217443 0.77982 -0.0741573 -0.621596 0.00073747 16711680 
0.646124 -0.032122 0.22331 -0.798739 -0.260043 -0.542581 0.000795358 16711680 
0.654706 -0.0374985 0.211737 -0.842837 -0.2563 -0.473219 0.000961661 16711680 
-0.625845 -0.0149301 0.203135 0.827149 -0.115388 -0.550009 0.000928849 16711680 
-0.615428 -0.010798 0.215823 0.766198 -0.13731 -0.627763 0.000978607 16711680 
0.643093 -0.00902289 0.214793 -0.806235 -0.327737 -0.492517 0.00123089 16711680 
0.653268 -0.0178772 0.202973 -0.854716 -0.309492 -0.416743 0.00104756 16711680 
-0.610491 0.0117368 0.215611 0.739434 -0.212088 -0.638949 0.000906108 16711680 
0.624444 0.0196347 0.221824 -0.70735 -0.445544 -0.548768 0.0015092 16711680 
0.635663 0.0117993 0.211251 -0.776826 -0.411868 -0.476346 0.00121989 16711680 
-0.608948 0.0344718 0.208732 0.732026 -0.281316 -0.620483 0.000970733 16711680 
-0.595045 0.0400522 0.221126 0.656454 -0.312597 -0.68655 0.000991983 16711680 
0.617239 0.0360422 0.215797 -0.671904 -0.546605 -0.499768 0.00209796 16711680 
0.628173 0.0341489 0.202121 -0.737682 -0.539703 -0.405643 0.00203447 16711680 
-0.604672 0.0568578 0.202964 0.6996 -0.364215 -0.614741 0.00128384 16711680 
-0.589182 0.0634133 0.214167 0.614945 -0.410532 -0.67328 0.00117385 16711680 
-0.574516 0.0685404 0.223382 0.52316 -0.452553 -0.722149 0.00129054 16711680 
0.540704 0.0736508 0.222139 -0.161394 -0.942026 -0.294174 0.00264717 16711680 
0.560858 0.0714747 0.215204 -0.247042 -0.914662 -0.319942 0.00236977 16711680 
0.586076 0.0629342 0.212349 -0.411815 -0.825111 -0.386782 0.00306503 16711680 
0.608911 0.0529077 0.206132 -0.589085 -0.69949 -0.40459 0.00377617 16711680 
-0.58735 0.0791064 0.205482 0.589026 -0.494704 -0.638996 0.00143674 16711680 
-0.565995 0.0887477 0.214654 0.448822 -0.596701 -0.665212 0.00300704 16711680 
-0.543563 0.09656 0.221553 0.319987 -0.670198 -0.669659 0.00373578 16711680 
-0.254063 0.0999095 0.219041 -0.0357779 -0.942176 -0.333203 0.0017066 16711680 
-0.23907 0.0993462 0.218912 -0.0381594 -0.947681 -0.31693 0.00154013 16711680 
-0.214077 0.0987404 0.218691 -0.0305587 -0.95378 -0.298947 0.00161002 16711680 
-0.189082 0.0983344 0.218465 -0.0230439 -0.953416 -0.300778 0.00144328 16711680 
-0.162115 0.0984183 0.21421 -0.0271179 -0.962443 -0.270127 0.00139781 16711680 
-0.139127 0.0981454 0.213 -0.0187521 -0.967399 -0.252562 0.00121003 16711680 
-0.114131 0.0977646 0.212774 -0.0178649 -0.966969 -0.254267 0.000995536 16711680 
-0.0891354 0.0973337 0.212548 -0.0126269 -0.967671 -0.251901 0.0010272 16711680 
-0.0641313 0.0975193 0.212311 -0.00919789 -0.97153 -0.236737 0.00143597 16711680 
-0.0391373 0.0969968 0.212087 -0.0296911 -0.972163 -0.232416 0.00128784 16711680 
-0.0141476 0.0961577 0.21187 -0.0362443 -0.971561 -0.233999 0.00098611 16711680 
0.010837 0.0949605 0.211661 -0.0379494 -0.974049 -0.223133 0.000683407 16711680 
0.0358263 0.0940963 0.211445 -0.0329672 -0.975593 -0.217099 0.000620469 16711680 
0.0608194 0.0934988 0.211223 -0.0303274 -0.975256 -0.218989 0.000622404 16711680 
0.0858108 0.0927847 0.211003 -0.0310248 -0.976421 -0.213631 0.000755185 16711680 
0.110799 0.0918374 0.210789 -0.0296361 -0.977864 -0.207131 0.000710921 16711680 
0.135787 0.0909233 0.210574 -0.0311157 -0.978421 -0.204263 0.000533374 16711680 
0.160779 0.0902009 0.210354 -0.0222808 -0.980676 -0.194365 0.000483208 16711680 
0.187042 0.0888839 0.213511 -0.0275826 -0.977007 -0.211414 0.0009131 16711680 
0.21151 0.0875524 0.215606 -0.0230797 -0.974222 -0.224406 0.00102437 16711680 
0.235803 0.0871583 0.216633 -0.0162242 -0.973226 -0.229279 0.001209 16711680 
0.2608 0.0867351 0.216578 -0.0214939 -0.976157 -0.215997 0.0016964 16711680 
0.285795 0.0862353 0.21645 -0.0252123 -0.978212 -0.206073 0.00171016 16711680 
0.310781 0.0855862 0.215533 -0.0347375 -0.979719 -0.197344 0.00118451 16711680 
0.335767 0.0847898 0.214753 -0.0334652 -0.980659 -0.192841 0.000886944 16711680 
0.360755 0.0841182 0.21417 -0.0325428 -0.981768 -0.187275 0.000718187 16711680 
0.385746 0.0835479 0.213644 -0.021087 -0.982751 -0.183726 0.000711032 16711680 
0.409892 0.0831187 0.212923 -0.0295017 -0.983767 -0.177007 0.000625886 16711680 
0.435715 0.0821533 0.211587 -0.045651 -0.984855 -0.167264 0.000518683 16711680 
0.460696 0.0813114 0.210416 -0.0278075 -0.987119 -0.15755 0.000421675 16711680 
0.484461 0.0806854 0.209994 -0.0492646 -0.986115 -0.15859 0.000447268 16711680 
0.510681 0.0785725 0.212317 -0.0696361 -0.981047 -0.180826 0.000547021 16711680 
0.534212 0.0774431 0.209262 -0.100098 -0.975835 -0.194233 0.00104501 16711680 
0.555566 0.0766783 0.201933 -0.15242 -0.967908 -0.199807 0.0020896 16711680 
-0.556751 0.104837 0.20413 0.334638 -0.77062 -0.542367 0.00633863 16711680 
-0.538286 0.106895 0.210082 0.2293 -0.816665 -0.529603 0.00696291 16711680 
-0.513414 0.108734 0.213857 0.106976 -0.87094 -0.479603 0.00641547 16711680 
-0.488996 0.110064 0.214219 0.0425773 -0.911779 -0.408467 0.00568848 16711680 
-0.463999 0.111837 0.210761 -0.000953735 -0.946508 -0.32268 0.00376202 16711680 
-0.439003 0.111403 0.210536 -0.0259094 -0.952923 -0.302103 0.00315799 16711680 
-0.414017 0.110325 0.210324 -0.0454134 -0.954344 -0.295237 0.00278528 16711680 
-0.389019 0.107943 0.213452 -0.0549281 -0.94626 -0.318707 0.00313078 16711680 
-0.364017 0.105515 0.217033 -0.045372 -0.938754 -0.341589 0.00342799 16711680 
-0.339929 0.104656 0.216776 -0.0429933 -0.940809 -0.336199 0.00330507 16711680 
-0.314055 0.103713 0.214891 -0.0513584 -0.944958 -0.323135 0.00261616 16711680 
-0.289076 0.102744 0.213776 -0.0365758 -0.947112 -0.318812 0.00195793 16711680 
-0.263841 0.102298 0.211738 -0.0384834 -0.9557 -0.291815 0.00148342 16711680 
-0.23913 0.102074 0.208005 -0.0387704 -0.968677 -0.245279 0.00113145 16711680 
-0.214149 0.101443 0.206567 -0.0264437 -0.975197 -0.219754 0.000822098 16711680 
-0.189154 0.101083 0.206132 -0.0256723 -0.976881 -0.212236 0.001082 16711680 
-0.166674 0.10097 0.203823 -0.0329419 -0.979334 -0.199548 0.00131626 16711680 
-0.144207 0.100778 0.200091 -0.027334 -0.985468 -0.167647 0.000608115 16711680 
-0.114196 0.100385 0.201518 -0.0137294 -0.980144 -0.197813 0.000674561 16711680 
-0.683325 -0.208072 0.239347 -0.0374393 0.999254 0.00942749 0.000568832 16711680 
-0.663308 -0.206991 0.239137 -0.145071 0.985435 0.0887289 0.00381602 16711680 
-0.638517 -0.202801 0.24123 0.417936 -0.839735 -0.346662 0.0198982 16711680 
0.672038 -0.200729 0.246513 -0.504098 -0.770485 -0.390177 0.0260718 16711680 
0.685724 -0.202977 0.235891 -0.501739 -0.807112 -0.311173 0.0192872 16711680 
0.706844 -0.208195 0.236337 0.112989 0.992169 0.0532346 0.00558012 16711680 
-0.630667 -0.193723 0.231139 0.60485 -0.633826 -0.4821 0.0160926 16711680 
-0.615413 -0.186596 0.241974 0.599718 -0.541941 -0.58876 0.0151098 16711680 
0.665077 -0.187171 0.23916 -0.684812 -0.50867 -0.521812 0.0171229 16711680 
0.678448 -0.194231 0.226316 -0.663208 -0.637233 -0.392543 0.0184395 16711680 
-0.613214 -0.162762 0.235319 0.712857 -0.172293 -0.679817 0.00365172 16711680 
-0.598577 -0.156927 0.248463 0.648278 -0.11201 -0.75312 0.00193748 16711680 
0.65936 -0.163823 0.237152 -0.773664 -0.135133 -0.619018 0.00244224 16711680 
-0.613061 -0.137035 0.232976 0.722868 -0.0584348 -0.688511 0.000828451 16711680 
-0.597775 -0.13695 0.247572 0.652757 -0.0618752 -0.755037 0.001016 16711680 
0.649937 -0.129522 0.245267 -0.751244 -0.0732287 -0.655949 0.00113338 16711680 
0.658191 -0.139834 0.235859 -0.788524 -0.0766615 -0.610207 0.000716145 16711680 
