# .PCD v.7 - Point Cloud Data file format
VERSION .7
FIELDS x y z normal_x normal_y normal_z curvature rgb
SIZE 4 4 4 4 4 4 4 4
TYPE F F F F F F F U
COUNT 1 1 1 1 1 1 1 1
WIDTH 673
HEIGHT 1
VIEWPOINT 0 0 0 1 0 0 0
POINTS 673
DATA ascii
-0.563349 -0.21429 -0.368814 -0.0084487 -0.899033 -0.437799 0 8355711 
-0.537814 -0.214775 -0.367934 -0.0112193 -0.90239 -0.430774 0 8355711 
-0.511431 -0.215866 -0.36578 -0.00683451 -0.988411 -0.151645 0 8355711 
-0.487006 -0.216418 -0.365074 -0.0107263 -0.991059 -0.13299 0 8355711 
-0.463089 -0.216779 -0.364578 -0.0192435 -0.971847 -0.234826 0 8355711 
-0.438384 -0.217249 -0.364242 -0.0117963 -0.960063 -0.279537 0 8355711 
-0.412667 -0.21765 -0.364517 -0.00724009 -0.935347 -0.353658 0 8355711 
-0.387591 -0.218579 -0.362913 -0.0195759 -0.997284 -0.0709962 0 8355711 
-0.361973 -0.219035 -0.362838 -0.0213233 -0.998423 -0.0519371 0 8355711 
-0.337135 -0.219485 -0.363508 -0.0149708 -0.998206 -0.0579793 0 8355711 
-0.311856 -0.219803 -0.363034 -0.0166524 -0.985783 -0.167196 0 8355711 
-0.287618 -0.22047 -0.361741 -0.0153154 -0.99509 -0.0977771 0 8355711 
-0.263079 -0.220934 -0.36053 -0.0131227 -0.998072 -0.0606559 0 8355711 
-0.237523 -0.221386 -0.361313 -0.0167907 -0.997431 -0.0696328 0 8355711 
-0.212345 -0.221756 -0.361068 -0.0183713 -0.992708 -0.119137 0 8355711 
-0.186998 -0.222286 -0.361786 -0.0195905 -0.995716 -0.09037 0 8355711 
-0.162097 -0.222687 -0.361473 -0.0164293 -0.994826 -0.100255 0 8355711 
-0.138179 -0.223244 -0.361138 -0.00141846 -0.990023 -0.140898 0 8355711 
-0.111947 -0.223821 -0.358685 -0.0177456 -0.999338 -0.0317688 0 8355711 
-0.0866971 -0.224242 -0.359492 -0.0146454 -0.999424 -0.030604 0 8355711 
-0.0631177 -0.224605 -0.360243 -0.0162173 -0.997712 -0.0656338 0 8355711 
-0.0450919 -0.224864 -0.360952 -0.0186265 -0.996568 -0.0806519 0 8355711 
-0.0310184 -0.225211 -0.339568 -0.0193432 -0.999725 0.0132433 0 8355711 
-0.0095863 -0.225601 -0.340534 -0.0177429 -0.999765 0.0124495 0 8355711 
0.0133316 -0.226021 -0.339369 -0.0188903 -0.999744 0.0124478 0 8355711 
0.0374109 -0.226457 -0.337789 -0.0185142 -0.999731 0.0139887 0 8355711 
0.0614945 -0.226918 -0.338754 -0.0194656 -0.999771 0.00894693 0 8355711 
0.0882703 -0.227491 -0.342397 -0.0229647 -0.999733 0.00256309 0 8355711 
0.114149 -0.227986 -0.337744 -0.0188636 -0.999796 0.00722969 0 8355711 
0.141413 -0.228513 -0.343626 -0.0199263 -0.999801 0.00118952 0 8355711 
0.163608 -0.228988 -0.33927 -0.0202803 -0.999786 0.00400152 0 8355711 
0.187421 -0.229455 -0.339504 -0.0206597 -0.999777 0.00428761 0 8355711 
0.214449 -0.230032 -0.33863 -0.0219004 -0.999729 0.00783031 0 8355711 
0.238006 -0.230562 -0.341165 -0.0221859 -0.999753 0.00117097 0 8355711 
0.264595 -0.231054 -0.336595 -0.0194669 -0.999793 0.00589351 0 8355711 
0.28971 -0.231627 -0.344043 -0.021537 -0.999767 -0.00156033 0 8355711 
0.31003 -0.232039 -0.341434 -0.0226226 -0.999735 -0.00431781 0 8355711 
0.338489 -0.23266 -0.343512 -0.0221018 -0.999741 -0.00534833 0 8355711 
0.363863 -0.233182 -0.342904 -0.0216801 -0.999757 -0.00387684 0 8355711 
0.388126 -0.233698 -0.345523 -0.0197981 -0.999793 -0.00466743 0 8355711 
0.409898 -0.23411 -0.343808 -0.0169545 -0.999709 -0.0171561 0 8355711 
0.435881 -0.234654 -0.341269 -0.0216359 -0.999761 -0.00324615 0 8355711 
0.461959 -0.235204 -0.34253 -0.0198651 -0.999698 -0.0144894 0 8355711 
0.490429 -0.235723 -0.344027 -0.0201613 -0.998002 -0.0598861 0 8355711 
0.511262 -0.236026 -0.345543 -0.0111773 -0.991725 -0.127895 0 8355711 
0.537506 -0.236725 -0.34296 -0.0174599 -0.995968 -0.0879895 0 8355711 
0.562828 -0.237212 -0.341556 -0.0201834 -0.996211 -0.0845936 0 8355711 
0.588709 -0.237733 -0.344349 -0.0252253 -0.984331 -0.174514 0 8355711 
0.61426 -0.238135 -0.344461 -0.00703423 -0.959162 -0.282771 0 8355711 
0.636971 -0.238344 -0.344506 -0.026327 -0.955067 -0.295218 0 8355711 
0.663261 -0.238781 -0.344775 -0.0146817 -0.951574 -0.307069 0 8355711 
0.686352 -0.239257 -0.34579 -0.037213 -0.927227 -0.372645 0 8355711 
0.712534 -0.240333 -0.342727 -0.0176155 -0.985193 -0.170543 0 8355711 
0.738868 -0.240931 -0.342631 -0.0129387 -0.996631 -0.0809834 0 8355711 
0.762032 -0.241386 -0.337905 0.0199916 -0.99842 -0.0525071 0 8355711 
-0.711231 -0.211454 -0.337249 -0.168826 -0.985316 0.025513 0 8355711 
-0.692178 -0.212302 -0.340156 -0.0239257 -0.999461 0.0225012 0 8355711 
-0.665371 -0.212989 -0.347022 -0.0180113 -0.999677 0.0179351 0 8355711 
-0.64207 -0.213008 -0.326204 -0.0188056 -0.999597 0.0212443 0 8355711 
-0.616948 -0.213744 -0.337196 -0.0224682 -0.999548 0.0199914 0 8355711 
-0.586659 -0.214437 -0.34196 -0.0199779 -0.999651 0.0172699 0 8355711 
-0.559543 -0.214881 -0.337107 -0.0180406 -0.999673 0.01814 0 8355711 
-0.529028 -0.215449 -0.338958 -0.0183768 -0.999661 0.0184243 0 8355711 
-0.509043 -0.215742 -0.333118 -0.021387 -0.999431 0.0260754 0 8355711 
-0.485346 -0.216334 -0.332933 -0.027266 -0.999212 0.0288605 0 8355711 
-0.460359 -0.216881 -0.331144 -0.0203236 -0.999196 0.0345635 0 8355711 
-0.434869 -0.217419 -0.333448 -0.0196238 -0.999121 0.0370533 0 8355711 
-0.414392 -0.217915 -0.336829 -0.0198211 -0.999532 0.0233211 0 8355711 
-0.390049 -0.21836 -0.335538 -0.0180853 -0.999521 0.0251096 0 8355711 
-0.362297 -0.218915 -0.335998 -0.0206195 -0.999469 0.0252158 0 8355711 
-0.336127 -0.219384 -0.334258 -0.0191653 -0.99943 0.0277801 0 8355711 
-0.310514 -0.219852 -0.331304 -0.0212898 -0.99927 0.031732 0 8355711 
-0.289646 -0.220329 -0.334482 -0.0199902 -0.999448 0.0265445 0 8355711 
-0.264632 -0.220846 -0.335619 -0.0179136 -0.999599 0.0219351 0 8355711 
-0.23701 -0.221431 -0.339485 -0.0193037 -0.999715 0.0140228 0 8355711 
-0.207912 -0.222009 -0.337753 -0.0193607 -0.9997 0.0150124 0 8355711 
-0.184218 -0.222481 -0.337276 -0.0223351 -0.999662 0.0132898 0 8355711 
-0.163362 -0.222835 -0.335255 -0.0172085 -0.999641 0.0205151 0 8355711 
-0.136355 -0.223327 -0.336574 -0.019655 -0.999619 0.0193586 0 8355711 
-0.10951 -0.223864 -0.333818 -0.0200415 -0.999532 0.0230985 0 8355711 
-0.0872197 -0.224237 -0.334213 -0.0160881 -0.999665 0.0202934 0 8355711 
-0.0637814 -0.224692 -0.34028 -0.0160784 -0.999806 0.0113812 0 8355711 
-0.0400415 -0.224815 -0.326583 -0.0142387 -0.9993 0.0345874 0 8355711 
-0.0112033 -0.22519 -0.321262 -0.0187217 -0.998496 0.0515322 0 8355711 
0.0136068 -0.225538 -0.319057 -0.0251724 -0.996765 0.0763259 0 8355711 
0.0400499 -0.225679 -0.314834 -0.0177828 -0.991549 0.128511 0 8355711 
0.0637524 -0.2261 -0.314976 -0.0233279 -0.990231 0.137474 0 8355711 
0.0882109 -0.226263 -0.312603 -0.0253576 -0.983468 0.179297 0 8355711 
0.114303 -0.226652 -0.311161 -0.0222813 -0.981342 0.190976 0 8355711 
0.139596 -0.227127 -0.310809 -0.028121 -0.979003 0.201897 0 8355711 
0.164687 -0.227179 -0.307832 -0.0241823 -0.968804 0.246647 0 8355711 
0.185881 -0.227772 -0.307808 -0.0283601 -0.971509 0.2353 0 8355711 
0.213221 -0.228535 -0.308474 -0.0257995 -0.976837 0.212422 0 8355711 
0.237523 -0.229206 -0.309252 -0.0244113 -0.980381 0.195596 0 8355711 
0.262943 -0.229856 -0.308022 -0.0232513 -0.981698 0.189019 0 8355711 
0.288336 -0.230413 -0.308438 -0.0283259 -0.982642 0.183339 0 8355711 
0.31252 -0.231103 -0.308204 -0.0241548 -0.986432 0.162382 0 8355711 
0.33819 -0.231696 -0.308319 -0.0239945 -0.987236 0.157446 0 8355711 
0.36228 -0.23226 -0.307603 -0.0268741 -0.988554 0.148452 0 8355711 
0.385713 -0.232905 -0.309107 -0.020719 -0.992123 0.123542 0 8355711 
0.410645 -0.233501 -0.309866 -0.0238575 -0.993516 0.111165 0 8355711 
0.43761 -0.234251 -0.31115 -0.0237754 -0.996574 0.0792103 0 8355711 
0.46291 -0.234393 -0.306918 -0.0217554 -0.991428 0.128832 0 8355711 
0.489248 -0.234991 -0.307315 -0.0239194 -0.993106 0.114752 0 8355711 
0.512835 -0.23548 -0.307083 -0.0252705 -0.993957 0.106822 0 8355711 
0.537891 -0.236125 -0.306281 -0.0288889 -0.996071 0.0837148 0 8355711 
0.562428 -0.23681 -0.307319 -0.0266061 -0.998685 0.0438167 0 8355711 
0.585118 -0.237447 -0.310824 -0.0248222 -0.99942 0.0232949 0 8355711 
0.615728 -0.238131 -0.305705 -0.0255236 -0.999578 0.0138898 0 8355711 
0.63542 -0.238743 -0.310284 -0.0274567 -0.999582 0.00903096 0 8355711 
0.656994 -0.239175 -0.319005 -0.0183622 -0.999826 0.00324858 0 8355711 
0.684147 -0.239725 -0.314717 -0.0214679 -0.999711 0.0108546 0 8355711 
0.711906 -0.240353 -0.317418 -0.0224669 -0.999691 0.0105917 0 8355711 
0.740916 -0.24094 -0.312222 -0.0183286 -0.999759 0.0120421 0 8355711 
0.76615 -0.241126 -0.311857 0.0512466 -0.998606 0.0126581 0 8355711 
-0.711074 -0.210894 -0.312214 -0.0845494 -0.996196 0.0210733 0 8355711 
-0.689954 -0.211756 -0.313794 -0.0278174 -0.999348 0.0230086 0 8355711 
-0.665082 -0.212344 -0.316117 -0.0199433 -0.999563 0.0218404 0 8355711 
-0.61341 -0.213156 -0.30894 -0.0205369 -0.99952 0.0232006 0 8355711 
-0.584164 -0.213785 -0.309522 -0.0171733 -0.999399 0.0301137 0 8355711 
-0.559633 -0.214002 -0.307001 0.00259699 -0.997137 0.075572 0 8355711 
-0.537564 -0.213813 -0.308651 0.0316494 -0.98382 0.176341 0 8355711 
-0.512632 -0.213465 -0.310434 0.0415825 -0.954583 0.295029 0 8355711 
-0.487785 -0.211849 -0.311459 0.0437738 -0.858842 0.510367 0 8355711 
-0.462383 -0.211672 -0.312284 -0.0101468 -0.83308 0.55306 0 8355711 
-0.436919 -0.213529 -0.31358 -0.024857 -0.898709 0.43784 0 8355711 
-0.411888 -0.212756 -0.31123 -0.021548 -0.834526 0.550547 0 8355711 
-0.386846 -0.213312 -0.311413 -0.0367561 -0.850752 0.524281 0 8355711 
-0.36201 -0.214012 -0.310868 -0.0297622 -0.863527 0.503424 0 8355711 
-0.337448 -0.215291 -0.310507 -0.0250481 -0.894839 0.445685 0 8355711 
-0.312575 -0.216662 -0.311483 -0.0222143 -0.926065 0.376709 0 8355711 
-0.288447 -0.216907 -0.311107 -0.0211594 -0.916821 0.398738 0 8355711 
-0.262318 -0.217379 -0.310475 -0.0238601 -0.91649 0.399344 0 8355711 
-0.237833 -0.218159 -0.310988 -0.0275039 -0.929098 0.368809 0 8355711 
-0.212155 -0.218369 -0.310436 -0.0204352 -0.917968 0.396127 0 8355711 
-0.186762 -0.218543 -0.309679 -0.0149497 -0.905253 0.424609 0 8355711 
-0.163546 -0.219688 -0.310905 -0.0230372 -0.929887 0.367124 0 8355711 
-0.136737 -0.220375 -0.310919 -0.0242533 -0.936919 0.348705 0 8355711 
-0.112883 -0.220738 -0.310299 -0.0191597 -0.935362 0.353171 0 8355711 
-0.0875149 -0.221636 -0.311524 -0.0194087 -0.951423 0.307274 0 8355711 
-0.0617596 -0.221921 -0.310611 -0.0232832 -0.945743 0.32408 0 8355711 
-0.0375753 -0.222446 -0.309694 -0.0252285 -0.948341 0.316247 0 8355711 
-0.0139605 -0.222686 -0.307943 -0.0293882 -0.939218 0.342062 0 8355711 
0.0160336 -0.223223 -0.306705 -0.0304988 -0.935711 0.351447 0 8355711 
0.0373426 -0.223285 -0.304875 -0.0279467 -0.92174 0.3868 0 8355711 
0.0652502 -0.223776 -0.304325 -0.0188658 -0.923296 0.383626 0 8355711 
0.0867737 -0.224062 -0.303565 -0.0321226 -0.921585 0.386845 0 8355711 
0.107009 -0.224262 -0.302552 -0.0253064 -0.915126 0.402373 0 8355711 
0.13905 -0.224393 -0.300603 -0.0298807 -0.894408 0.446252 0 8355711 
0.15557 -0.224822 -0.300306 -0.0190623 -0.89414 0.447382 0 8355711 
-0.484451 -0.191423 -0.301206 0.0876427 -0.092782 0.991822 0 8355711 
-0.465621 -0.190848 -0.301663 0.00263174 -0.105898 0.994374 0 8355711 
-0.440467 -0.189009 -0.301155 -0.0267157 -0.0762488 0.996731 0 8355711 
-0.415709 -0.191167 -0.300664 -0.0297357 -0.104406 0.99409 0 8355711 
-0.391322 -0.19778 -0.300384 -0.0346262 -0.176071 0.983768 0 8355711 
-0.482539 -0.165888 -0.300637 0.0889379 0.0111132 0.995975 0 8355711 
-0.463582 -0.164324 -0.301397 0.0129036 0.0203039 0.999711 0 8355711 
-0.436851 -0.163608 -0.301143 -0.0211086 0.0370673 0.99909 0 8355711 
-0.4176 -0.163811 -0.300751 -0.0199039 0.042053 0.998917 0 8355711 
-0.383339 -0.159184 -0.300285 -0.0205852 0.0418318 0.998913 0 8355711 
-0.363854 -0.151011 -0.300215 -0.0209575 0.0357546 0.999141 0 8355711 
-0.482795 -0.137755 -0.300996 0.0996324 0.00964689 0.994978 0 8355711 
-0.46375 -0.137711 -0.301985 0.0279753 0.01684 0.999467 0 8355711 
-0.435495 -0.137845 -0.301999 -0.0139879 0.0270196 0.999537 0 8355711 
-0.409884 -0.146848 -0.301287 -0.0184908 0.0337803 0.999258 0 8355711 
-0.392324 -0.13596 -0.301261 -0.020409 0.0268099 0.999432 0 8355711 
-0.369994 -0.137831 -0.300766 -0.0212316 0.0285688 0.999366 0 8355711 
-0.340506 -0.137639 -0.300159 -0.0205935 0.0259858 0.99945 0 8355711 
-0.481892 -0.113486 -0.301201 0.102729 0.00655752 0.994688 0 8355711 
-0.464561 -0.116281 -0.302308 0.0368634 0.00991617 0.999271 0 8355711 
-0.439941 -0.114626 -0.302512 -0.00648244 0.0156388 0.999857 0 8355711 
-0.415179 -0.111058 -0.302204 -0.0179149 0.014897 0.999729 0 8355711 
-0.386943 -0.10875 -0.301695 -0.0204236 0.0137094 0.999697 0 8355711 
-0.36057 -0.106671 -0.301156 -0.0217306 0.0109906 0.999703 0 8355711 
-0.335974 -0.111658 -0.300529 -0.0223102 0.0123744 0.999675 0 8355711 
-0.312215 -0.107772 -0.300068 -0.0224299 0.00947025 0.999704 0 8355711 
-0.484966 -0.0899126 -0.301053 0.112422 0.0057284 0.993644 0 8355711 
-0.464591 -0.0872353 -0.302489 0.0400351 0.00117156 0.999198 0 8355711 
-0.434688 -0.091399 -0.302743 -0.0133701 0.00309199 0.999906 0 8355711 
-0.409869 -0.0872104 -0.302293 -0.0189407 -0.000483474 0.999821 0 8355711 
-0.383514 -0.0810366 -0.301783 -0.0212701 -0.00709328 0.999749 0 8355711 
-0.367952 -0.0909051 -0.30143 -0.0222789 0.00224177 0.999749 0 8355711 
-0.33813 -0.0886531 -0.300751 -0.0232573 -0.000293511 0.99973 0 8355711 
-0.315824 -0.0890837 -0.300229 -0.0221855 -0.000712288 0.999754 0 8355711 
-0.483652 -0.06351 -0.301248 0.0985131 -0.00524408 0.995122 0 8355711 
-0.462225 -0.0643198 -0.302421 0.0305914 -0.0117787 0.999463 0 8355711 
-0.439075 -0.0634597 -0.302596 -0.00795082 -0.0168302 0.999827 0 8355711 
-0.415654 -0.0654501 -0.30223 -0.0199584 -0.0147394 0.999692 0 8355711 
-0.393085 -0.0592165 -0.301668 -0.0198792 -0.0197418 0.999607 0 8355711 
-0.366438 -0.0609504 -0.301125 -0.0225605 -0.0185231 0.999574 0 8355711 
-0.34195 -0.060085 -0.300558 -0.0236189 -0.018999 0.999541 0 8355711 
-0.317812 -0.0701011 -0.300156 -0.0230128 -0.0121088 0.999662 0 8355711 
-0.483813 -0.0420178 -0.300913 0.0899993 -0.0216783 0.995706 0 8355711 
-0.464133 -0.0352132 -0.301709 0.0269619 -0.0332444 0.999084 0 8355711 
-0.438345 -0.0325218 -0.301697 -0.00884271 -0.0392968 0.999188 0 8355711 
-0.409191 -0.0377447 -0.301407 -0.0196348 -0.0334594 0.999247 0 8355711 
-0.383195 -0.0379386 -0.300889 -0.0208076 -0.033177 0.999233 0 8355711 
-0.364262 -0.0356685 -0.300428 -0.0222984 -0.0347517 0.999147 0 8355711 
-0.339151 -0.0419039 -0.300045 -0.0250504 -0.0315778 0.999187 0 8355711 
-0.484628 -0.0214544 -0.300253 0.0869722 -0.035471 0.995579 0 8355711 
-0.465011 -0.0103885 -0.300682 0.0211591 -0.0484715 0.9986 0 8355711 
-0.433938 -0.00826213 -0.300609 -0.00713074 -0.0464772 0.998894 0 8355711 
-0.41156 -0.0128172 -0.300474 -0.0184541 -0.0416286 0.998963 0 8355711 
-0.456915 0.00259968 -0.300069 0.00193477 -0.0601292 0.998189 0 8355711 
0.196013 -0.225383 -0.29893 -0.0160373 -0.880804 0.473209 0 8355711 
0.214233 -0.225446 -0.297745 -0.0377505 -0.868921 0.493509 0 8355711 
0.236469 -0.226174 -0.297829 -0.022866 -0.882033 0.470633 0 8355711 
0.261721 -0.227321 -0.298719 -0.0323645 -0.9018 0.430941 0 8355711 
0.288868 -0.22694 -0.296309 -0.0351449 -0.867728 0.495795 0 8355711 
0.313125 -0.227951 -0.296514 -0.0303735 -0.885691 0.463281 0 8355711 
0.337696 -0.22797 -0.295389 -0.0254685 -0.866464 0.498589 0 8355711 
0.363252 -0.228945 -0.295786 -0.0301145 -0.87988 0.474241 0 8355711 
0.386671 -0.229293 -0.295158 -0.0272924 -0.876253 0.481078 0 8355711 
0.41599 -0.230183 -0.295161 -0.0274509 -0.886304 0.46229 0 8355711 
0.437113 -0.230576 -0.294774 -0.0268295 -0.882221 0.470071 0 8355711 
0.4627 -0.230553 -0.293395 -0.0311095 -0.856665 0.514934 0 8355711 
0.487145 -0.230747 -0.292532 -0.0299746 -0.846854 0.530979 0 8355711 
0.511831 -0.231461 -0.292075 -0.0384126 -0.853928 0.518971 0 8355711 
0.537922 -0.232279 -0.290992 -0.0804934 -0.873701 0.479758 0 8355711 
0.564142 -0.23298 -0.286619 -0.131736 -0.889159 0.438226 0 8355711 
0.587603 -0.235545 -0.285374 -0.106231 -0.964451 0.24197 0 8355711 
0.611241 -0.237214 -0.283295 -0.0626099 -0.993269 0.0974533 0 8355711 
0.634109 -0.23812 -0.28102 -0.0386385 -0.99856 0.0372145 0 8355711 
0.662623 -0.239009 -0.292539 -0.0198916 -0.999691 0.0148854 0 8355711 
0.694891 -0.239619 -0.288135 -0.0205061 -0.999704 0.0130992 0 8355711 
0.72258 -0.240268 -0.292465 -0.0217103 -0.999665 0.0140718 0 8355711 
0.743674 -0.240565 -0.283045 -0.0170332 -0.999751 0.0144141 0 8355711 
0.764345 -0.240831 -0.287219 0.0221494 -0.999647 0.0146381 0 8355711 
-0.7114 -0.210208 -0.286956 -0.109697 -0.993613 0.0264491 0 8355711 
-0.692605 -0.211107 -0.289373 -0.0315226 -0.999211 0.0241515 0 8355711 
-0.661699 -0.211774 -0.28668 -0.0187631 -0.999564 0.022795 0 8355711 
-0.636409 -0.212224 -0.287803 -0.0174512 -0.999559 0.0240429 0 8355711 
-0.61249 -0.212515 -0.282158 -0.0108936 -0.999247 0.0372462 0 8355711 
-0.585862 -0.211776 -0.284026 0.0913341 -0.973828 0.208129 0 8355711 
-0.562853 -0.208853 -0.285716 0.235372 -0.82486 0.51401 0 8355711 
-0.539516 -0.207251 -0.292106 0.244197 -0.661067 0.709477 0 8355711 
-0.515907 -0.205038 -0.297428 0.219156 -0.425857 0.877848 0 8355711 
-0.356698 -0.201064 -0.299976 -0.0529118 -0.152229 0.986928 0 8355711 
-0.340269 -0.203908 -0.299832 -0.0316712 -0.149078 0.988318 0 8355711 
-0.312649 -0.204951 -0.29952 -0.0166348 -0.215511 0.97636 0 8355711 
-0.285915 -0.205082 -0.299056 -0.0108297 -0.252155 0.967626 0 8355711 
-0.263851 -0.205956 -0.298823 -0.0231762 -0.271478 0.962165 0 8355711 
-0.237586 -0.206542 -0.298435 -0.0209926 -0.31232 0.949745 0 8355711 
-0.214725 -0.205193 -0.297568 -0.0152724 -0.267013 0.963572 0 8355711 
-0.187386 -0.205254 -0.297185 -0.0200521 -0.29321 0.955838 0 8355711 
-0.162593 -0.206412 -0.297056 -0.0233562 -0.356366 0.934055 0 8355711 
-0.139229 -0.205792 -0.296302 -0.0300123 -0.326209 0.944821 0 8355711 
-0.111966 -0.208037 -0.296345 -0.0291728 -0.372329 0.927642 0 8355711 
-0.0887863 -0.209406 -0.296342 -0.0185725 -0.415863 0.909238 0 8355711 
-0.0634703 -0.20819 -0.295201 -0.0243728 -0.365801 0.930374 0 8355711 
-0.0360194 -0.210161 -0.29533 -0.0339501 -0.4222 0.905867 0 8355711 
-0.0139917 -0.209418 -0.294481 -0.0294956 -0.378297 0.925214 0 8355711 
0.0128076 -0.210057 -0.293943 -0.0266023 -0.38394 0.922975 0 8355711 
0.0367403 -0.210525 -0.293433 -0.0293634 -0.380344 0.924379 0 8355711 
0.0631894 -0.214047 -0.294487 -0.0263689 -0.523982 0.851321 0 8355711 
0.0877006 -0.214048 -0.294123 -0.0287606 -0.520711 0.853248 0 8355711 
0.113144 -0.213449 -0.293165 -0.0352268 -0.483174 0.874816 0 8355711 
0.138687 -0.212117 -0.291312 -0.0286088 -0.389811 0.92045 0 8355711 
0.162986 -0.214195 -0.291821 -0.0254797 -0.471968 0.881247 0 8355711 
0.187554 -0.214355 -0.290994 -0.0302807 -0.445266 0.894886 0 8355711 
0.213626 -0.214208 -0.29031 -0.0295281 -0.426059 0.904213 0 8355711 
0.238235 -0.213749 -0.289139 -0.0228325 -0.37306 0.927526 0 8355711 
0.262195 -0.213868 -0.288396 -0.0223187 -0.344122 0.93866 0 8355711 
0.288503 -0.212331 -0.287072 -0.0270759 -0.26195 0.964702 0 8355711 
0.311651 -0.213938 -0.28711 -0.0277185 -0.312972 0.949358 0 8355711 
0.337344 -0.214313 -0.286294 -0.0175682 -0.285133 0.958327 0 8355711 
0.365321 -0.211739 -0.285031 -0.0284199 -0.183821 0.982549 0 8355711 
0.387477 -0.215688 -0.285368 -0.0226682 -0.289549 0.956895 0 8355711 
0.41288 -0.212123 -0.284136 -0.017683 -0.165278 0.986089 0 8355711 
0.439245 -0.214481 -0.284168 -0.0228085 -0.223969 0.974329 0 8355711 
0.460524 -0.213237 -0.28372 -0.0110282 -0.191449 0.981441 0 8355711 
0.487416 -0.21391 -0.283006 -0.0232864 -0.143472 0.98938 0 8355711 
0.513252 -0.214953 -0.282429 -0.0518421 -0.171278 0.983858 0 8355711 
0.538796 -0.215123 -0.28013 -0.145705 -0.172404 0.97419 0 8355711 
0.558489 -0.217785 -0.276378 -0.243493 -0.183853 0.952318 0 8355711 
-0.56152 -0.193271 -0.278697 0.439385 -0.0439236 0.897224 0 8355711 
-0.53937 -0.186914 -0.287832 0.348691 -0.058544 0.935408 0 8355711 
-0.51162 -0.187684 -0.296216 0.227565 -0.0620511 0.971784 0 8355711 
-0.495695 -0.184964 -0.299219 0.150195 -0.0413493 0.987791 0 8355711 
-0.401995 -0.18532 -0.299805 -0.0314904 -0.0212562 0.999278 0 8355711 
-0.384993 -0.18973 -0.299479 -0.0301443 -0.0644013 0.997469 0 8355711 
-0.364891 -0.187603 -0.299014 -0.0182098 -0.04131 0.998981 0 8355711 
-0.338574 -0.187441 -0.298376 -0.0178801 -0.0219902 0.999598 0 8355711 
-0.310032 -0.1924 -0.297815 -0.0250226 -0.0698275 0.997245 0 8355711 
-0.289786 -0.190235 -0.297344 -0.0188253 -0.0426933 0.998911 0 8355711 
-0.260739 -0.190337 -0.296792 -0.0236252 -0.0442938 0.998739 0 8355711 
-0.237682 -0.189798 -0.296305 -0.0179393 -0.0308363 0.999363 0 8355711 
-0.211168 -0.191382 -0.295757 -0.0184807 -0.0215535 0.999597 0 8355711 
-0.19043 -0.189001 -0.295444 -0.0180018 -0.00263415 0.999835 0 8355711 
-0.163348 -0.191127 -0.294902 -0.0201222 -0.0109932 0.999737 0 8355711 
-0.136576 -0.18994 -0.294436 -0.0195059 -0.00910278 0.999768 0 8355711 
-0.110598 -0.189849 -0.293934 -0.0210198 -0.00198179 0.999777 0 8355711 
-0.0855812 -0.192629 -0.293408 -0.0176023 -0.0170106 0.9997 0 8355711 
-0.059557 -0.190135 -0.292969 -0.0198654 0.00414022 0.999794 0 8355711 
-0.0374201 -0.192464 -0.292502 -0.0196191 -0.0107379 0.99975 0 8355711 
-0.0135721 -0.191359 -0.292031 -0.0201797 0.011641 0.999729 0 8355711 
0.0162864 -0.190468 -0.291446 -0.0227818 0.0110852 0.999679 0 8355711 
0.037889 -0.19152 -0.290917 -0.020513 0.0162467 0.999658 0 8355711 
0.0662335 -0.19034 -0.29033 -0.0238811 0.0230665 0.999449 0 8355711 
0.0864012 -0.193593 -0.289801 -0.0237917 0.0162537 0.999585 0 8355711 
0.114017 -0.187917 -0.289435 -0.0218359 0.0351762 0.999142 0 8355711 
0.138746 -0.19174 -0.288759 -0.0205431 0.0284978 0.999383 0 8355711 
0.16417 -0.190143 -0.288306 -0.019826 0.0387385 0.999053 0 8355711 
0.189788 -0.191378 -0.287736 -0.0197993 0.0320639 0.99929 0 8355711 
0.2145 -0.191066 -0.287289 -0.0192951 0.0380702 0.999089 0 8355711 
0.239046 -0.18855 -0.286932 -0.0192792 0.0438296 0.998853 0 8355711 
0.261569 -0.189298 -0.286498 -0.0191895 0.0381796 0.999087 0 8355711 
0.288104 -0.191142 -0.285931 -0.0192152 0.0385473 0.999072 0 8355711 
0.316945 -0.189193 -0.285446 -0.0183155 0.0356434 0.999197 0 8355711 
0.339939 -0.191254 -0.284925 -0.0183554 0.0367176 0.999157 0 8355711 
0.365706 -0.192216 -0.284419 -0.0184697 0.0282994 0.999429 0 8355711 
0.388063 -0.1882 -0.284187 -0.0174384 0.0255449 0.999522 0 8355711 
0.411821 -0.18853 -0.283774 -0.0172192 0.0280077 0.999459 0 8355711 
0.438267 -0.193251 -0.283201 -0.0135835 0.0200519 0.999707 0 8355711 
0.465765 -0.188343 -0.282963 -0.0135211 0.0206716 0.999695 0 8355711 
0.489777 -0.187422 -0.282601 -0.0218282 0.0166873 0.999622 0 8355711 
0.512482 -0.189198 -0.281856 -0.0491122 0.0195357 0.998602 0 8355711 
0.537738 -0.186692 -0.27976 -0.139048 0.0216937 0.990048 0 8355711 
0.55574 -0.187011 -0.276498 -0.22698 0.0207455 0.973678 0 8355711 
-0.560633 -0.162662 -0.27798 0.449682 -0.0018993 0.893187 0 8355711 
-0.537833 -0.162787 -0.287822 0.350436 0.00020288 0.936587 0 8355711 
-0.512489 -0.163588 -0.295655 0.23358 0.00425702 0.972328 0 8355711 
-0.496134 -0.162085 -0.299 0.158478 0.00541474 0.987348 0 8355711 
-0.396345 -0.173605 -0.299884 -0.0195478 0.0400625 0.999006 0 8355711 
-0.360786 -0.166004 -0.299509 -0.0203701 0.0476046 0.998659 0 8355711 
-0.340405 -0.165762 -0.299099 -0.019449 0.0436809 0.998856 0 8355711 
-0.312707 -0.168711 -0.298487 -0.0185041 0.0465033 0.998747 0 8355711 
-0.285155 -0.162579 -0.298212 -0.0199583 0.0410636 0.998957 0 8355711 
-0.264883 -0.163767 -0.297759 -0.0199984 0.0419649 0.998919 0 8355711 
-0.233568 -0.165925 -0.297049 -0.0178077 0.040583 0.999017 0 8355711 
-0.212916 -0.166288 -0.296679 -0.0174852 0.0388999 0.99909 0 8355711 
-0.195862 -0.164849 -0.296447 -0.0173484 0.0368683 0.99917 0 8355711 
-0.167672 -0.162732 -0.295999 -0.0186514 0.0339451 0.99925 0 8355711 
-0.13751 -0.162235 -0.295424 -0.0196862 0.032822 0.999267 0 8355711 
-0.116994 -0.167785 -0.294863 -0.0189524 0.0374448 0.999119 0 8355711 
-0.0878112 -0.162239 -0.294499 -0.018407 0.0316226 0.99933 0 8355711 
-0.0589455 -0.157963 -0.294126 -0.0177271 0.0297765 0.999399 0 8355711 
-0.0371835 -0.158971 -0.293705 -0.0186557 0.0305292 0.99936 0 8355711 
-0.0169465 -0.164554 -0.293138 -0.0197796 0.0351579 0.999186 0 8355711 
0.00841499 -0.160269 -0.292741 -0.0196996 0.0328765 0.999265 0 8355711 
0.0290633 -0.161746 -0.29229 -0.020626 0.0329813 0.999243 0 8355711 
0.0617192 -0.16671 -0.291463 -0.0199355 0.0378382 0.999085 0 8355711 
0.0895974 -0.161066 -0.291076 -0.0193418 0.0308612 0.999337 0 8355711 
0.109613 -0.163253 -0.290603 -0.0205022 0.0328837 0.999249 0 8355711 
0.136236 -0.161927 -0.290101 -0.0212418 0.0284266 0.99937 0 8355711 
0.166321 -0.165849 -0.289383 -0.0204356 0.0324602 0.999264 0 8355711 
0.188425 -0.163045 -0.289001 -0.0196989 0.0275187 0.999427 0 8355711 
0.215139 -0.163657 -0.288442 -0.0206329 0.0266101 0.999433 0 8355711 
0.241128 -0.165737 -0.28785 -0.021074 0.0250863 0.999463 0 8355711 
0.263653 -0.159744 -0.287476 -0.0210191 0.0196355 0.999586 0 8355711 
0.286759 -0.165353 -0.286889 -0.0208686 0.0232615 0.999512 0 8355711 
0.311909 -0.16686 -0.286332 -0.0208382 0.0243064 0.999487 0 8355711 
0.341272 -0.163897 -0.28575 -0.0207772 0.019278 0.999598 0 8355711 
0.363478 -0.161627 -0.285338 -0.0197458 0.015963 0.999678 0 8355711 
0.389075 -0.167594 -0.284765 -0.0185455 0.0189488 0.999648 0 8355711 
0.412135 -0.161816 -0.284429 -0.0186504 0.0135012 0.999735 0 8355711 
0.466253 -0.164502 -0.283448 -0.0174666 0.0136704 0.999754 0 8355711 
0.490592 -0.164217 -0.282971 -0.0190817 0.0118593 0.999748 0 8355711 
0.511352 -0.16012 -0.282466 -0.0441427 0.0107563 0.998967 0 8355711 
0.538547 -0.160722 -0.280146 -0.142733 0.0132593 0.989672 0 8355711 
0.557815 -0.164789 -0.276457 -0.236581 0.0167463 0.971467 0 8355711 
-0.556858 -0.137545 -0.27977 0.436941 -0.00293706 0.899485 0 8355711 
-0.533253 -0.134216 -0.289599 0.331736 -0.00124477 0.943371 0 8355711 
-0.510029 -0.137076 -0.296384 0.226467 0.0024418 0.974016 0 8355711 
-0.49489 -0.138383 -0.299466 0.15964 0.00756686 0.987146 0 8355711 
-0.311394 -0.141997 -0.299425 -0.0209034 0.0274731 0.999404 0 8355711 
-0.291478 -0.134143 -0.29922 -0.0212743 0.0220228 0.999531 0 8355711 
-0.263478 -0.139217 -0.298525 -0.0206685 0.0233913 0.999513 0 8355711 
-0.237956 -0.135144 -0.29808 -0.0198089 0.0202978 0.999598 0 8355711 
-0.2132 -0.138594 -0.297527 -0.0191635 0.0214359 0.999587 0 8355711 
-0.190098 -0.147445 -0.296898 -0.0193706 0.0265851 0.999459 0 8355711 
-0.174797 -0.132145 -0.296903 -0.019986 0.0163753 0.999666 0 8355711 
-0.141856 -0.137067 -0.296146 -0.0200919 0.0172068 0.99965 0 8355711 
-0.112002 -0.137168 -0.295542 -0.0194125 0.0167385 0.999671 0 8355711 
-0.0916958 -0.142576 -0.29507 -0.0190591 0.0187207 0.999643 0 8355711 
-0.0631307 -0.140269 -0.294599 -0.0173443 0.0179702 0.999688 0 8355711 
-0.0361952 -0.132702 -0.294217 -0.0183946 0.0134899 0.99974 0 8355711 
-0.0136312 -0.138139 -0.293704 -0.0201861 0.0170679 0.999651 0 8355711 
0.0341275 -0.13845 -0.292692 -0.0214812 0.0163531 0.999635 0 8355711 
0.063615 -0.137246 -0.292066 -0.0215523 0.013991 0.99967 0 8355711 
0.115934 -0.143701 -0.290877 -0.0209763 0.0143155 0.999677 0 8355711 
0.135288 -0.140834 -0.290492 -0.022107 0.0120811 0.999683 0 8355711 
0.165379 -0.139481 -0.289855 -0.0211404 0.0100698 0.999726 0 8355711 
0.192319 -0.136351 -0.289313 -0.0216886 0.00728161 0.999738 0 8355711 
0.216786 -0.137942 -0.288743 -0.0226913 0.00683824 0.999719 0 8355711 
0.239632 -0.144295 -0.288197 -0.0219812 0.00831702 0.999724 0 8355711 
0.259902 -0.133215 -0.287811 -0.0222778 0.00343685 0.999746 0 8355711 
0.283649 -0.141636 -0.287243 -0.0222651 0.00579224 0.999735 0 8355711 
0.311781 -0.139341 -0.28665 -0.0213932 0.00390545 0.999764 0 8355711 
0.333864 -0.133777 -0.286185 -0.0215315 0.00279447 0.999764 0 8355711 
0.359593 -0.139593 -0.285611 -0.0207231 0.00397348 0.999777 0 8355711 
0.390363 -0.132021 -0.285012 -0.0200251 5.06392e-05 0.999799 0 8355711 
0.415173 -0.139221 -0.284504 -0.0198724 0.00262149 0.999799 0 8355711 
0.43212 -0.139411 -0.284199 -0.0184309 0.00197468 0.999828 0 8355711 
0.458728 -0.140214 -0.283724 -0.0173952 0.00115865 0.999848 0 8355711 
0.49286 -0.137897 -0.283065 -0.0215621 -9.20292e-05 0.999767 0 8355711 
0.516446 -0.137066 -0.282353 -0.051969 0.000789565 0.998648 0 8355711 
0.539891 -0.136094 -0.280225 -0.145067 0.00604871 0.989403 0 8355711 
0.557402 -0.139958 -0.276839 -0.227968 0.0108784 0.973608 0 8355711 
-0.560061 -0.112513 -0.278082 0.454233 -0.00330912 0.890877 0 8355711 
-0.539367 -0.113324 -0.28723 0.359537 -0.00224181 0.933128 0 8355711 
-0.513306 -0.111663 -0.295555 0.245914 0.00399817 0.969284 0 8355711 
-0.495358 -0.111206 -0.299448 0.164959 0.00846128 0.986264 0 8355711 
-0.291173 -0.112754 -0.299545 -0.0215772 0.0112896 0.999703 0 8355711 
-0.263111 -0.117543 -0.298887 -0.0214385 0.0131647 0.999683 0 8355711 
-0.232896 -0.10861 -0.298325 -0.0209276 0.00780572 0.999751 0 8355711 
-0.212525 -0.107918 -0.297909 -0.0212271 0.00678623 0.999752 0 8355711 
-0.189753 -0.111465 -0.297442 -0.019786 0.00712322 0.999779 0 8355711 
-0.163483 -0.109469 -0.296915 -0.0203027 0.00602449 0.999776 0 8355711 
-0.140712 -0.11612 -0.296393 -0.0210463 0.00881488 0.99974 0 8355711 
-0.12096 -0.10941 -0.296016 -0.0204965 0.00552207 0.999775 0 8355711 
-0.0870418 -0.111721 -0.295314 -0.0189766 0.00429765 0.999811 0 8355711 
-0.0568982 -0.113063 -0.294759 -0.0181442 0.00488355 0.999823 0 8355711 
-0.0386823 -0.109901 -0.294452 -0.0185469 0.00295781 0.999824 0 8355711 
-0.0137045 -0.10446 -0.293974 -0.0207842 -0.000143654 0.999784 0 8355711 
0.0166816 -0.110902 -0.293322 -0.0210269 0.00243505 0.999776 0 8355711 
0.0432748 -0.108599 -0.292743 -0.0221574 0.00139226 0.999754 0 8355711 
0.0600818 -0.103386 -0.292394 -0.0216712 0.000434138 0.999765 0 8355711 
0.0874735 -0.113998 -0.29175 -0.0222241 0.00360391 0.999747 0 8355711 
0.11807 -0.119306 -0.291042 -0.0225723 0.00415524 0.999737 0 8355711 
0.137171 -0.111667 -0.290621 -0.0235604 0.00165152 0.999721 0 8355711 
0.168252 -0.111385 -0.289891 -0.0226628 0.000641354 0.999743 0 8355711 
0.183427 -0.117773 -0.289558 -0.0219698 0.000451415 0.999759 0 8355711 
0.211858 -0.109093 -0.288911 -0.0231604 -0.00263098 0.999728 0 8355711 
0.239265 -0.124966 -0.288302 -0.0225394 0.00206681 0.999744 0 8355711 
0.269144 -0.116233 -0.287611 -0.0229583 -0.00156121 0.999735 0 8355711 
0.294597 -0.106617 -0.287001 -0.023188 -0.00461967 0.99972 0 8355711 
0.312661 -0.115609 -0.286622 -0.0217596 -0.00258524 0.99976 0 8355711 
0.347953 -0.107607 -0.2858 -0.0213646 -0.00584451 0.999755 0 8355711 
0.367506 -0.110826 -0.285415 -0.0202699 -0.00500041 0.999782 0 8355711 
0.383269 -0.119713 -0.285133 -0.0201515 -0.00355724 0.999791 0 8355711 
0.401835 -0.107358 -0.284706 -0.0197655 -0.00630118 0.999785 0 8355711 
0.43528 -0.116148 -0.284105 -0.0182202 -0.00394497 0.999826 0 8355711 
0.470123 -0.10656 -0.283427 -0.0189888 -0.00807926 0.999787 0 8355711 
0.489005 -0.119199 -0.283119 -0.0206856 -0.00357524 0.99978 0 8355711 
0.515672 -0.112041 -0.282375 -0.0459752 -0.00322311 0.998937 0 8355711 
0.537747 -0.114802 -0.280567 -0.128631 0.00237347 0.99169 0 8355711 
0.559063 -0.110456 -0.27674 -0.228218 0.00768352 0.97358 0 8355711 
-0.557579 -0.0873739 -0.279382 0.447798 0.0028041 0.89413 0 8355711 
-0.538643 -0.0898702 -0.287632 0.359637 0.00684338 0.933067 0 8355711 
-0.512984 -0.0886969 -0.295792 0.24676 0.00845855 0.96904 0 8355711 
-0.495798 -0.0898234 -0.299595 0.162935 0.00551072 0.986622 0 8355711 
-0.304266 -0.0814521 -0.299961 -0.0228868 -0.00710992 0.999713 0 8355711 
-0.289208 -0.089742 -0.299645 -0.0220989 -0.00152521 0.999755 0 8355711 
-0.267378 -0.091658 -0.299159 -0.0220765 -0.000263297 0.999756 0 8355711 
-0.247368 -0.0888541 -0.298717 -0.0229473 -0.00274498 0.999733 0 8355711 
-0.213159 -0.0882801 -0.297992 -0.0212801 -0.00402341 0.999765 0 8355711 
-0.182467 -0.0950475 -0.297366 -0.0202045 -0.00134718 0.999795 0 8355711 
-0.164764 -0.0846954 -0.296958 -0.02106 -0.00874755 0.99974 0 8355711 
-0.136936 -0.0884892 -0.296385 -0.0214422 -0.00705508 0.999745 0 8355711 
-0.115899 -0.0840533 -0.295876 -0.0215504 -0.0101318 0.999716 0 8355711 
-0.0864374 -0.0854193 -0.295293 -0.0196861 -0.00854044 0.99977 0 8355711 
-0.0630829 -0.0874945 -0.294855 -0.0200462 -0.00863736 0.999762 0 8355711 
-0.0349607 -0.0921562 -0.294357 -0.0196682 -0.00665689 0.999784 0 8355711 
-0.00276749 -0.0752128 -0.293523 -0.02025 -0.0179267 0.999634 0 8355711 
0.00292366 -0.0874593 -0.29357 -0.0206417 -0.00920943 0.999745 0 8355711 
0.0373412 -0.085955 -0.292817 -0.0216306 -0.00896367 0.999726 0 8355711 
0.0695048 -0.0850053 -0.29211 -0.0218839 -0.00962033 0.999714 0 8355711 
0.0814807 -0.0921827 -0.291887 -0.0228856 -0.00582908 0.999721 0 8355711 
0.110826 -0.0881603 -0.291158 -0.0231909 -0.00921994 0.999689 0 8355711 
0.13218 -0.0945681 -0.290729 -0.0239296 -0.00592561 0.999696 0 8355711 
0.163349 -0.0947149 -0.289978 -0.0232784 -0.00669266 0.999707 0 8355711 
0.188111 -0.0850495 -0.289292 -0.0241504 -0.0134115 0.999618 0 8355711 
0.221917 -0.0867013 -0.288505 -0.0229289 -0.0134455 0.999647 0 8355711 
0.240887 -0.0878045 -0.288098 -0.0225264 -0.0130772 0.999661 0 8355711 
0.265743 -0.0833641 -0.287469 -0.0232549 -0.01445 0.999625 0 8355711 
0.289365 -0.0834071 -0.286897 -0.0241383 -0.0149284 0.999597 0 8355711 
0.312876 -0.0817781 -0.286314 -0.0226099 -0.016221 0.999613 0 8355711 
0.337997 -0.0880717 -0.285856 -0.0217524 -0.0133044 0.999675 0 8355711 
0.37428 -0.0771274 -0.284932 -0.0195429 -0.0173517 0.999658 0 8355711 
0.390739 -0.0847414 -0.284725 -0.0201771 -0.0138246 0.999701 0 8355711 
0.406375 -0.0850296 -0.284403 -0.0208089 -0.0137292 0.999689 0 8355711 
0.437528 -0.0919113 -0.283877 -0.0189205 -0.0127218 0.99974 0 8355711 
0.460695 -0.0811526 -0.283282 -0.0185991 -0.0162162 0.999695 0 8355711 
0.488252 -0.0824325 -0.282797 -0.0194553 -0.0156001 0.999689 0 8355711 
0.514936 -0.0903363 -0.28222 -0.0447706 -0.0102418 0.998945 0 8355711 
0.537908 -0.0853243 -0.280519 -0.119639 -0.00679808 0.992794 0 8355711 
0.557321 -0.0872126 -0.277252 -0.219336 -0.00148874 0.975648 0 8355711 
-0.560721 -0.0628084 -0.277739 0.467547 -0.00732598 0.883938 0 8355711 
-0.538593 -0.063988 -0.287688 0.361741 -0.00323653 0.932273 0 8355711 
-0.512918 -0.0646479 -0.295925 0.246095 -0.000636188 0.969246 0 8355711 
-0.496227 -0.0601449 -0.299601 0.164379 -0.00134293 0.986396 0 8355711 
-0.318847 -0.0546919 -0.29991 -0.0237834 -0.0234455 0.999442 0 8355711 
-0.290896 -0.0653489 -0.299457 -0.0229941 -0.0163565 0.999602 0 8355711 
-0.266881 -0.0633779 -0.298886 -0.0236398 -0.0184827 0.99955 0 8355711 
-0.237709 -0.0690565 -0.298325 -0.0224748 -0.0158075 0.999622 0 8355711 
-0.212665 -0.0646985 -0.297671 -0.022235 -0.0192769 0.999567 0 8355711 
-0.192962 -0.0629493 -0.297193 -0.0218849 -0.0211371 0.999537 0 8355711 
-0.166196 -0.0691307 -0.296756 -0.0216121 -0.0186303 0.999593 0 8355711 
-0.139912 -0.0647039 -0.296098 -0.0216835 -0.0210735 0.999543 0 8355711 
-0.110889 -0.0606856 -0.295374 -0.0213356 -0.0236326 0.999493 0 8355711 
-0.0842067 -0.0624681 -0.294859 -0.020888 -0.0231779 0.999513 0 8355711 
-0.0528056 -0.0717802 -0.294445 -0.0201899 -0.0180452 0.999633 0 8355711 
-0.0371629 -0.0610995 -0.293899 -0.0194168 -0.0248979 0.999501 0 8355711 
-0.0113734 -0.0654925 -0.293494 -0.0202146 -0.022675 0.999538 0 8355711 
0.0104138 -0.0636914 -0.292996 -0.0213141 -0.0239343 0.999486 0 8355711 
0.04132 -0.0619708 -0.292321 -0.0207422 -0.0254964 0.99946 0 8355711 
0.0596703 -0.0610605 -0.291876 -0.0219185 -0.0252472 0.999441 0 8355711 
0.0848016 -0.0650466 -0.291419 -0.0231056 -0.0225712 0.999478 0 8355711 
0.107612 -0.0670013 -0.290925 -0.0242168 -0.0212348 0.999481 0 8355711 
0.13945 -0.0658245 -0.290105 -0.0241041 -0.0218645 0.99947 0 8355711 
0.164844 -0.0634884 -0.289442 -0.0237406 -0.0233476 0.999445 0 8355711 
0.192847 -0.063678 -0.288797 -0.0247795 -0.0239603 0.999406 0 8355711 
0.212107 -0.0614653 -0.288242 -0.0233859 -0.0236951 0.999446 0 8355711 
0.236796 -0.0608588 -0.287657 -0.0232152 -0.0258916 0.999395 0 8355711 
0.275908 -0.0625311 -0.286808 -0.0236111 -0.024487 0.999421 0 8355711 
0.312797 -0.0618921 -0.285923 -0.0218802 -0.022073 0.999517 0 8355711 
0.331795 -0.0687614 -0.285671 -0.0215097 -0.019959 0.999569 0 8355711 
0.359982 -0.058134 -0.284813 -0.0197696 -0.0239779 0.999517 0 8355711 
0.386569 -0.0619056 -0.284376 -0.0201139 -0.0226279 0.999542 0 8355711 
0.408446 -0.0643191 -0.283978 -0.0204624 -0.0215149 0.999559 0 8355711 
0.436278 -0.0594161 -0.283311 -0.019976 -0.0242376 0.999507 0 8355711 
0.46027 -0.0576143 -0.282788 -0.0197115 -0.0260085 0.999467 0 8355711 
0.484052 -0.0565302 -0.282321 -0.0188275 -0.027275 0.999451 0 8355711 
0.51397 -0.0586308 -0.281699 -0.0355832 -0.0260972 0.999026 0 8355711 
0.538042 -0.0596949 -0.280096 -0.116773 -0.024527 0.992856 0 8355711 
0.557447 -0.0593806 -0.276881 -0.226754 -0.0287944 0.973526 0 8355711 
-0.557852 -0.0380021 -0.278803 0.45881 -0.0214522 0.888275 0 8355711 
-0.539706 -0.0402715 -0.286968 0.369515 -0.016014 0.929087 0 8355711 
-0.515156 -0.0348952 -0.295098 0.257316 -0.013507 0.966233 0 8355711 
-0.497295 -0.0344859 -0.299122 0.16111 -0.0190519 0.986753 0 8355711 
-0.312568 -0.0346559 -0.299148 -0.0230682 -0.0358707 0.99909 0 8355711 
-0.291672 -0.0366158 -0.298729 -0.0245328 -0.0348081 0.999093 0 8355711 
-0.268641 -0.0401239 -0.298338 -0.0226169 -0.0321914 0.999226 0 8355711 
-0.237821 -0.0398442 -0.297585 -0.023089 -0.0336425 0.999167 0 8355711 
-0.212238 -0.037316 -0.296926 -0.023269 -0.036441 0.999065 0 8355711 
-0.189051 -0.0374192 -0.296374 -0.0228872 -0.035437 0.99911 0 8355711 
-0.158965 -0.0488363 -0.29611 -0.0218725 -0.0301994 0.999305 0 8355711 
-0.140349 -0.0397931 -0.295398 -0.0217216 -0.0357362 0.999125 0 8355711 
-0.111021 -0.0321845 -0.294472 -0.0209355 -0.0390014 0.99902 0 8355711 
-0.086061 -0.0375136 -0.294126 -0.0212318 -0.0365951 0.999105 0 8355711 
-0.0616299 -0.0388463 -0.2937 -0.0205252 -0.0375845 0.999083 0 8355711 
-0.0367324 -0.0390899 -0.293204 -0.0195428 -0.0375124 0.999105 0 8355711 
-0.011292 -0.0369396 -0.292612 -0.0199815 -0.0384462 0.999061 0 8355711 
0.0104764 -0.0386386 -0.292246 -0.0212562 -0.0375768 0.999068 0 8355711 
0.0298242 -0.0458979 -0.292081 -0.0218075 -0.0339131 0.999187 0 8355711 
0.0548236 -0.0369903 -0.291233 -0.0211404 -0.0382089 0.999046 0 8355711 
0.0850822 -0.0352654 -0.29049 -0.0222801 -0.0382564 0.99902 0 8355711 
0.108518 -0.0409738 -0.290161 -0.0237206 -0.0332862 0.999164 0 8355711 
0.134495 -0.037847 -0.289414 -0.0239712 -0.0356824 0.999076 0 8355711 
0.157048 -0.0327105 -0.288698 -0.0238522 -0.0379749 0.998994 0 8355711 
0.18788 -0.0398018 -0.288206 -0.0241135 -0.0344673 0.999115 0 8355711 
0.220505 -0.0352967 -0.287247 -0.0239285 -0.0344357 0.99912 0 8355711 
0.238369 -0.0385261 -0.286936 -0.0231607 -0.0340362 0.999152 0 8355711 
0.263843 -0.0363466 -0.286284 -0.0226138 -0.035982 0.999097 0 8355711 
0.290427 -0.0419089 -0.285865 -0.0226097 -0.0322414 0.999224 0 8355711 
0.306563 -0.0277778 -0.285061 -0.0207096 -0.0401226 0.99898 0 8355711 
0.329731 -0.0366141 -0.284863 -0.0216786 -0.033622 0.9992 0 8355711 
0.355227 -0.0331667 -0.284225 -0.0217461 -0.03437 0.999173 0 8355711 
0.388937 -0.0346386 -0.283583 -0.0205303 -0.0334487 0.99923 0 8355711 
0.419097 -0.0359057 -0.282979 -0.0209604 -0.0343195 0.999191 0 8355711 
0.435827 -0.0324517 -0.282542 -0.0211415 -0.0357755 0.999136 0 8355711 
0.462866 -0.0363356 -0.2821 -0.0207019 -0.0349677 0.999174 0 8355711 
0.490247 -0.0426336 -0.281776 -0.0201219 -0.0330949 0.99925 0 8355711 
0.512857 -0.0362201 -0.281026 -0.0359527 -0.0403277 0.99854 0 8355711 
0.539257 -0.038273 -0.279244 -0.129851 -0.0491805 0.990313 0 8355711 
0.554448 -0.0401344 -0.276801 -0.22162 -0.0580561 0.973403 0 8355711 
-0.556324 -0.0118122 -0.278821 0.463278 -0.0400943 0.885305 0 8355711 
-0.537595 -0.0117361 -0.287245 0.367549 -0.0325119 0.929436 0 8355711 
-0.512494 -0.0118504 -0.295344 0.238003 -0.0292317 0.970824 0 8355711 
-0.491149 -0.0101133 -0.299127 0.113793 -0.0410084 0.992658 0 8355711 
-0.382058 -0.0121481 -0.299841 -0.0213764 -0.0422176 0.99888 0 8355711 
-0.362298 -0.0142243 -0.2995 -0.022909 -0.0443951 0.998751 0 8355711 
-0.340028 -0.0143162 -0.298993 -0.023884 -0.0424328 0.998814 0 8355711 
-0.312626 -0.00970235 -0.298132 -0.0232092 -0.0426944 0.998819 0 8355711 
-0.285584 -0.0140504 -0.297688 -0.0232339 -0.0416451 0.998862 0 8355711 
-0.263986 -0.00741286 -0.296876 -0.024144 -0.0445438 0.998716 0 8355711 
-0.235815 -0.0103274 -0.296351 -0.0234279 -0.0428861 0.998805 0 8355711 
-0.216648 -0.0170577 -0.296195 -0.0229945 -0.0426666 0.998825 0 8355711 
-0.188167 -0.00542732 -0.295002 -0.0230618 -0.0471915 0.99862 0 8355711 
-0.160369 -0.0105974 -0.294583 -0.0217484 -0.0454843 0.998728 0 8355711 
-0.141671 -0.0105589 -0.294181 -0.0209492 -0.0479644 0.998629 0 8355711 
-0.113849 -0.00994321 -0.293562 -0.0220865 -0.0456957 0.998711 0 8355711 
-0.0873463 -0.0105976 -0.293025 -0.0220344 -0.0480946 0.9986 0 8355711 
-0.0630477 -0.0110221 -0.292508 -0.0209422 -0.0498149 0.998539 0 8355711 
-0.0388171 -0.0100781 -0.291969 -0.01989 -0.0516872 0.998465 0 8355711 
-0.0144728 -0.0110877 -0.291538 -0.0204903 -0.0497123 0.998553 0 8355711 
0.0112142 -0.00915485 -0.290894 -0.0213422 -0.0590363 0.998028 0 8355711 
0.0347407 -0.0132554 -0.290609 -0.0222605 -0.0514978 0.998425 0 8355711 
0.0611554 -0.00845781 -0.289795 -0.0220561 -0.0635451 0.997735 0 8355711 
0.0855908 -0.00922788 -0.289357 -0.0199148 -0.0546404 0.998308 0 8355711 
0.110965 -0.0100768 -0.28881 -0.0236625 -0.0570958 0.998088 0 8355711 
0.138103 -0.00904302 -0.288118 -0.0254506 -0.0553116 0.998145 0 8355711 
0.167829 -0.0144067 -0.287656 -0.0236351 -0.0522272 0.998356 0 8355711 
0.191303 -0.00666743 -0.286643 -0.0254359 -0.0675428 0.997392 0 8355711 
0.20985 -0.0112747 -0.286449 -0.0241305 -0.0624544 0.997756 0 8355711 
0.238088 -0.0101592 -0.285715 -0.0224696 -0.0644768 0.997666 0 8355711 
0.259015 -0.0110945 -0.285355 -0.0202658 -0.0571319 0.998161 0 8355711 
0.286857 -0.0107939 -0.284707 -0.0214144 -0.0582657 0.998071 0 8355711 
0.312327 -0.0045713 -0.283842 -0.0206521 -0.0683846 0.997445 0 8355711 
0.337002 -0.0132482 -0.283794 -0.0199814 -0.0506417 0.998517 0 8355711 
0.368311 -0.0135989 -0.283165 -0.020902 -0.050546 0.998503 0 8355711 
0.389588 -0.00872387 -0.282475 -0.0210972 -0.0617117 0.997871 0 8355711 
0.414107 -0.00717772 -0.281856 -0.0233817 -0.0682295 0.997396 0 8355711 
0.438473 -0.00782609 -0.281312 -0.0241326 -0.0756152 0.996845 0 8355711 
0.465344 -0.0109829 -0.280854 -0.0262283 -0.0806024 0.996401 0 8355711 
0.489194 -0.0103236 -0.280164 -0.0252465 -0.0901979 0.995604 0 8355711 
0.513001 -0.00912862 -0.279287 -0.0513819 -0.10554 0.993087 0 8355711 
0.535867 -0.0136955 -0.2778 -0.133217 -0.110873 0.984866 0 8355711 
0.550438 -0.0173972 -0.275932 -0.214656 -0.108262 0.970671 0 8355711 
-0.554549 0.011207 -0.278236 0.460168 -0.0825119 0.883989 0 8355711 
-0.537037 0.0145124 -0.285949 0.373959 -0.086871 0.923368 0 8355711 
-0.512727 0.0113945 -0.294124 0.237336 -0.0761029 0.968442 0 8355711 
-0.487162 0.012708 -0.298231 0.0909454 -0.0778952 0.992805 0 8355711 
-0.465502 0.0144057 -0.299169 0.0205625 -0.081955 0.996424 0 8355711 
-0.438453 0.0138446 -0.299331 0.000306031 -0.0825902 0.996584 0 8355711 
-0.415984 0.0148835 -0.299069 -0.0148854 -0.0830925 0.996431 0 8355711 
-0.386887 0.013949 -0.298548 -0.0212413 -0.0812498 0.996467 0 8355711 
-0.358047 0.0142379 -0.2979 -0.0229247 -0.0801895 0.996516 0 8355711 
-0.33408 0.0131491 -0.297434 -0.0230339 -0.0767263 0.996786 0 8355711 
-0.310515 0.0141596 -0.296854 -0.0232312 -0.0784808 0.996645 0 8355711 
-0.288407 0.0132002 -0.296353 -0.0258245 -0.0799536 0.996464 0 8355711 
-0.263836 0.0138125 -0.295704 -0.0240456 -0.0837305 0.996198 0 8355711 
-0.235665 0.0150107 -0.294902 -0.0248458 -0.095105 0.995157 0 8355711 
-0.212789 0.0134213 -0.294465 -0.026116 -0.0927735 0.995345 0 8355711 
-0.187753 0.0162706 -0.293632 -0.025968 -0.105923 0.994035 0 8355711 
-0.162738 0.0148135 -0.293096 -0.0256859 -0.106876 0.99394 0 8355711 
-0.137696 0.0122773 -0.292783 -0.0239037 -0.0965826 0.995038 0 8355711 
-0.113455 0.0143976 -0.291993 -0.0248459 -0.114376 0.993127 0 8355711 
-0.0897427 0.0128125 -0.29157 -0.0244522 -0.108789 0.993764 0 8355711 
-0.0623501 0.013602 -0.290854 -0.0224722 -0.117589 0.992808 0 8355711 
-0.0380754 0.0155332 -0.290021 -0.0229894 -0.133846 0.990735 0 8355711 
-0.0115962 0.0111263 -0.289853 -0.0242668 -0.115564 0.993004 0 8355711 
0.0145152 0.0147073 -0.288768 -0.0275777 -0.142625 0.989392 0 8355711 
0.0402871 0.0120528 -0.288371 -0.0244797 -0.138479 0.990063 0 8355711 
0.061533 0.0144219 -0.287593 -0.022773 -0.153559 0.987877 0 8355711 
0.0888183 0.0119071 -0.287344 -0.0211546 -0.141148 0.989762 0 8355711 
0.112104 0.0121931 -0.286728 -0.0227102 -0.145857 0.989045 0 8355711 
0.136735 0.0136835 -0.285971 -0.0238854 -0.155987 0.98747 0 8355711 
0.159921 0.0127484 -0.285503 -0.0276287 -0.153774 0.98772 0 8355711 
0.186517 0.0168483 -0.284137 -0.028646 -0.183727 0.98256 0 8355711 
0.21391 0.0151434 -0.283623 -0.025167 -0.178074 0.983695 0 8355711 
0.238372 0.0147582 -0.283129 -0.0240806 -0.178909 0.983571 0 8355711 
0.263951 0.0126129 -0.282808 -0.0223311 -0.169557 0.985267 0 8355711 
0.286945 0.0141978 -0.282069 -0.020342 -0.184556 0.982611 0 8355711 
0.310968 0.0158805 -0.281372 -0.018979 -0.201097 0.979388 0 8355711 
0.33622 0.0131098 -0.28124 -0.0210219 -0.182921 0.982903 0 8355711 
0.364739 0.0123992 -0.280693 -0.026165 -0.182229 0.982908 0 8355711 
0.388601 0.0140394 -0.279705 -0.0300473 -0.207973 0.977673 0 8355711 
0.4101 0.0135032 -0.279167 -0.0307575 -0.214087 0.97633 0 8355711 
0.435305 0.0144499 -0.278177 -0.0326867 -0.239258 0.970406 0 8355711 
0.461434 0.0111598 -0.277984 -0.0371483 -0.222058 0.974325 0 8355711 
0.486307 0.00974998 -0.277427 -0.0390758 -0.218856 0.974974 0 8355711 
0.512854 0.00734552 -0.276856 -0.0658368 -0.216688 0.974018 0 8355711 
0.533489 0.0034508 -0.275677 -0.141827 -0.213228 0.966653 0 8355711 
-0.552497 0.0341204 -0.276209 0.45558 -0.188419 0.870026 0 8355711 
-0.536466 0.039351 -0.282151 0.372024 -0.227156 0.899999 0 8355711 
-0.513255 0.0382337 -0.290268 0.246449 -0.216538 0.944656 0 8355711 
-0.490319 0.0390657 -0.294397 0.114131 -0.212676 0.970435 0 8355711 
-0.464564 0.0390649 -0.295858 0.0218015 -0.204965 0.978527 0 8355711 
-0.436452 0.0386646 -0.296154 -0.00418135 -0.190932 0.981594 0 8355711 
-0.410592 0.0386119 -0.295846 -0.0154222 -0.193302 0.981018 0 8355711 
-0.387759 0.0395459 -0.295271 -0.0223319 -0.199457 0.979652 0 8355711 
-0.359644 0.0410516 -0.294259 -0.0248582 -0.220101 0.97516 0 8355711 
-0.334484 0.0383598 -0.294177 -0.0245271 -0.205139 0.978425 0 8355711 
-0.31258 0.037968 -0.293649 -0.0308658 -0.212128 0.976754 0 8355711 
-0.289077 0.0405984 -0.292281 -0.0328725 -0.247141 0.968422 0 8355711 
-0.262376 0.0364904 -0.292334 -0.0299431 -0.222993 0.97436 0 8355711 
-0.238821 0.038846 -0.29103 -0.0311084 -0.251879 0.967259 0 8355711 
-0.211487 0.0392649 -0.290024 -0.0314246 -0.264389 0.963904 0 8355711 
-0.188101 0.037987 -0.289609 -0.0318596 -0.26126 0.964743 0 8355711 
-0.165791 0.0377432 -0.288914 -0.0332446 -0.27139 0.961895 0 8355711 
-0.137307 0.0387671 -0.287697 -0.0296841 -0.28575 0.957844 0 8355711 
-0.111139 0.039001 -0.286794 -0.0290764 -0.30228 0.952775 0 8355711 
-0.0860166 0.0410122 -0.285366 -0.0306771 -0.330594 0.943274 0 8355711 
-0.0618187 0.0393206 -0.285143 -0.0294122 -0.323426 0.945796 0 8355711 
-0.0381217 0.0360578 -0.285567 -0.0282216 -0.299168 0.953783 0 8355711 
-0.0119976 0.039297 -0.283598 -0.0318544 -0.342005 0.939158 0 8355711 
0.0123016 0.037522 -0.28344 -0.0315921 -0.329553 0.943608 0 8355711 
0.0379213 0.0398408 -0.281836 -0.0320085 -0.359642 0.932541 0 8355711 
0.0628091 0.0378765 -0.281581 -0.0286141 -0.349279 0.936582 0 8355711 
0.0875177 0.0378025 -0.281026 -0.0277884 -0.3556 0.934225 0 8355711 
0.114087 0.0364236 -0.280776 -0.0278024 -0.35288 0.935256 0 8355711 
