# .PCD v.7 - Point Cloud Data file format
VERSION .7
FIELDS x y z normal_x normal_y normal_z curvature rgb
SIZE 4 4 4 4 4 4 4 4
TYPE F F F F F F F U
COUNT 1 1 1 1 1 1 1 1
WIDTH 585
HEIGHT 1
VIEWPOINT 0 0 0 1 0 0 0
POINTS 585
DATA ascii
0.334284 0.0961359 0.0335648 -0.0307888 -0.999508 -0.00606693 0.000520033 8355711 
0.344289 0.0963935 0.0334659 -0.0246544 -0.999651 -0.00944304 0.000427888 8355711 
0.354291 0.096551 0.0333691 -0.016377 -0.999803 -0.0112179 0.000357095 8355711 
0.36428 0.0957089 0.0332927 -0.0231402 -0.999655 -0.0123892 0.000239453 8355711 
0.334377 0.0962401 0.0435644 -0.0423399 -0.998992 -0.0149091 0.000931981 8355711 
0.344375 0.0960977 0.0434737 -0.025866 -0.999401 -0.0229982 0.000586095 8355711 
0.354372 0.0958552 0.043385 -0.0107115 -0.999664 -0.0236203 0.000415606 8355711 
0.364363 0.0951132 0.0433066 -0.0183345 -0.999541 -0.0240979 0.000344542 8355711 
0.374189 0.0956623 0.0231984 -0.0396797 -0.999123 -0.0133464 0.000103898 8355711 
0.374097 0.0955584 0.0131989 -0.0414305 -0.999141 9.75426e-05 9.76173e-05 8355711 
0.384187 0.0954201 0.0231098 -0.0404757 -0.999137 -0.00929741 0.000145545 8355711 
0.384094 0.095316 0.0131102 -0.0422484 -0.999106 -0.00144567 0.000124315 8355711 
0.394178 0.0947779 0.0230293 -0.0507376 -0.99868 -0.00795449 7.61147e-05 8355711 
0.394086 0.0946738 0.0130298 -0.0509999 -0.998698 -0.00115525 7.54252e-05 8355711 
0.40417 0.0941358 0.0229489 -0.0480713 -0.998827 -0.00577108 0.000103722 8355711 
0.404073 0.0937318 0.0129555 -0.0479714 -0.998848 0.000918541 0.000103573 8355711 
0.374276 0.0953665 0.0332061 -0.0358577 -0.999276 -0.0127198 0.00014453 8355711 
0.384273 0.0951243 0.0331175 -0.0398349 -0.999166 -0.00892174 0.000142436 8355711 
0.394269 0.094782 0.0330309 -0.0501682 -0.998713 -0.0074789 9.47387e-05 8355711 
0.404261 0.0941398 0.0329505 -0.0469014 -0.998874 -0.00717989 0.000146689 8355711 
0.374364 0.0951706 0.0432118 -0.0303625 -0.999323 -0.0207612 0.0001406 8355711 
0.384361 0.0949284 0.0431232 -0.0365505 -0.999215 -0.0152745 0.000117514 8355711 
0.394355 0.0944862 0.0430386 -0.0491625 -0.998723 -0.0116586 4.98076e-05 8355711 
0.404349 0.0939439 0.0429561 -0.0476033 -0.998789 -0.0124008 9.12621e-05 8355711 
0.414161 0.0934934 0.0228685 -0.0391802 -0.999217 -0.00551363 0.00011231 8355711 
0.414072 0.0935894 0.0128648 -0.0409545 -0.99916 0.00132802 0.000111063 8355711 
0.424163 0.093551 0.0227736 -0.0442597 -0.999002 -0.00598932 0.000155651 8355711 
0.424073 0.0936471 0.01277 -0.0455699 -0.998961 0.000993643 0.000180476 8355711 
0.434156 0.0930087 0.0226912 -0.0536657 -0.998521 -0.00869629 0.000160286 8355711 
0.43407 0.0934046 0.0126814 -0.055205 -0.998472 0.00261589 0.000160226 8355711 
0.444142 0.0919668 0.0226189 -0.0600264 -0.998163 -0.00826085 0.000124392 8355711 
0.444056 0.0923625 0.0126091 -0.059791 -0.998203 0.00401957 0.0001326 8355711 
0.414255 0.0936974 0.0328659 -0.0371848 -0.999275 -0.00814626 0.00011344 8355711 
0.424252 0.0934552 0.0327773 -0.0432673 -0.99903 -0.00824369 0.000190949 8355711 
0.434248 0.0931128 0.0326907 -0.0540077 -0.998469 -0.011933 0.000193215 8355711 
0.444234 0.0920707 0.0326184 -0.0610159 -0.998076 -0.0110259 0.000119288 8355711 
0.414341 0.0934016 0.0428737 -0.04107 -0.999096 -0.0109474 8.41061e-05 8355711 
0.424341 0.0933593 0.0427809 -0.0436646 -0.999018 -0.0074781 0.000160147 8355711 
0.434333 0.0927169 0.0427005 -0.051615 -0.998645 -0.00661434 0.000165882 8355711 
0.44432 0.0917749 0.0426262 -0.0597492 -0.998192 -0.00660573 0.000119162 8355711 
0.454137 0.0916245 0.0225323 -0.0518453 -0.998617 -0.00875412 0.00016211 8355711 
0.454049 0.0918202 0.0125267 -0.053094 -0.998585 0.00282548 0.000171136 8355711 
0.464136 0.0914821 0.0224416 -0.038189 -0.999248 -0.00676573 9.04326e-05 8355711 
0.464045 0.0914781 0.0124401 -0.0384548 -0.999255 0.00325656 0.000105405 8355711 
0.47413 0.0910397 0.0223571 -0.0322763 -0.999472 -0.00368497 0.000107974 8355711 
0.474041 0.0911358 0.0123535 -0.0318566 -0.999472 0.00630796 0.000100366 8355711 
0.484127 0.0907975 0.0222684 -0.0362007 -0.999344 -0.00144732 9.9025e-05 8355711 
0.484037 0.0907935 0.0122669 -0.0366976 -0.999302 0.00693079 0.000108646 8355711 
0.454227 0.0915284 0.032536 -0.0516326 -0.998592 -0.0122051 0.000147494 8355711 
0.46422 0.0909864 0.0324535 -0.0368193 -0.999208 -0.0150633 4.70452e-05 8355711 
0.474215 0.090644 0.0323669 -0.0320691 -0.99936 -0.0158543 4.47636e-05 8355711 
0.484214 0.0905017 0.0322762 -0.0361886 -0.999257 -0.0132585 5.30282e-05 8355711 
0.454313 0.0912326 0.0425437 -0.0526129 -0.998594 -0.00647868 0.00015117 8355711 
0.464312 0.0910903 0.042453 -0.0419317 -0.999076 -0.00945091 0.000110066 8355711 
0.47431 0.0909479 0.0423623 -0.035766 -0.999225 -0.0164536 6.26589e-05 8355711 
0.484302 0.0903057 0.0422819 -0.0345905 -0.999269 -0.0162662 5.79262e-05 8355711 
0.49412 0.0902552 0.022186 -0.0427444 -0.999084 0.00206187 9.66348e-05 8355711 
0.494034 0.090551 0.0121782 -0.043072 -0.999031 0.00904933 9.72195e-05 8355711 
0.504113 0.0897131 0.0221035 -0.039688 -0.9992 0.0048703 0.000130549 8355711 
0.504022 0.0897089 0.0121019 -0.0422111 -0.99903 0.0125229 0.000107502 8355711 
0.514105 0.0890707 0.022023 -0.0428401 -0.999064 0.00599106 0.000109708 8355711 
0.514015 0.0891668 0.0120194 -0.0432519 -0.998993 0.011918 8.76496e-05 8355711 
0.524108 0.0892284 0.0219262 -0.0461875 -0.998924 0.0040797 9.66367e-05 8355711 
0.524017 0.0892244 0.0119246 -0.0422542 -0.999056 0.0101126 9.32553e-05 8355711 
0.494214 0.0904592 0.0321834 -0.0400966 -0.99915 -0.0096255 8.39569e-05 8355711 
0.504205 0.089817 0.032103 -0.0360643 -0.999314 -0.00846525 0.00010629 8355711 
0.514203 0.0895748 0.0320143 -0.0407734 -0.999154 -0.00531386 7.73987e-05 8355711 
0.5242 0.0893323 0.0319257 -0.0461077 -0.998929 -0.00380623 8.70931e-05 8355711 
0.494299 0.0900635 0.0421932 -0.03657 -0.999225 -0.0145405 7.88331e-05 8355711 
0.504295 0.0897212 0.0421066 -0.0324475 -0.999361 -0.0149978 7.44724e-05 8355711 
0.514289 0.089279 0.0420221 -0.0396762 -0.999132 -0.0127032 7.41776e-05 8355711 
0.524288 0.0891366 0.0419314 -0.0470405 -0.99884 -0.0103123 8.9669e-05 8355711 
0.534099 0.0885863 0.0218457 -0.0487667 -0.998806 0.00278317 0.000135257 8355711 
0.534008 0.088582 0.0118441 -0.0480742 -0.998801 0.0092286 0.000134616 8355711 
0.544091 0.0879439 0.0217653 -0.054796 -0.998496 0.0015576 0.00013884 8355711 
0.544 0.0879398 0.0117637 -0.05311 -0.998535 0.0103429 0.00012747 8355711 
0.554091 0.0879016 0.0216725 -0.0598303 -0.998208 -0.000890513 0.00016873 8355711 
0.553996 0.0875975 0.0116771 -0.0587167 -0.998245 0.0076686 0.000157138 8355711 
0.564081 0.0871593 0.0215942 -0.0775369 -0.996979 -0.0044961 0.000251327 8355711 
0.56399 0.0871553 0.0115926 -0.0773756 -0.996987 0.00545451 0.000303867 8355711 
0.554173 0.0873057 0.0316864 -0.062426 -0.997955 -0.0137133 7.72134e-05 8355711 
0.548577 0.0875854 0.0317331 -0.0616357 -0.998004 -0.0137444 6.30084e-05 8355711 
0.55415 0.0874486 0.028883 -0.0607626 -0.998132 -0.00636976 0.000127173 8355711 
0.564088 0.0871757 0.022394 -0.0774881 -0.996979 -0.00538326 0.000253165 8355711 
0.564166 0.0867637 0.0316039 -0.078561 -0.996745 -0.0180915 0.000183765 8355711 
0.534189 0.0884902 0.0318494 -0.0512097 -0.998668 -0.00635665 0.000124901 8355711 
0.54418 0.087848 0.0317689 -0.0577898 -0.998253 -0.0123268 8.57266e-05 8355711 
0.54427 0.0877522 0.0417725 -0.0592414 -0.99812 -0.015704 6.97236e-05 8355711 
0.542371 0.0878791 0.0417877 -0.0571327 -0.998256 -0.0148788 5.62829e-05 8355711 
0.544237 0.0877786 0.0381714 -0.0585303 -0.998192 -0.013654 7.26845e-05 8355711 
0.55426 0.0870099 0.0416942 -0.062257 -0.997921 -0.0166697 8.53089e-05 8355711 
0.564254 0.0865677 0.0416096 -0.0791173 -0.996685 -0.0189694 0.000177177 8355711 
0.534278 0.0883944 0.041853 -0.0528046 -0.998534 -0.0118641 0.000110899 8355711 
0.574067 0.0861172 0.0215219 -0.114374 -0.993416 -0.0065291 0.000595854 8355711 
0.564681 0.0871508 0.0215887 -0.0849054 -0.996379 -0.00446616 0.000384395 8355711 
0.573975 0.0860133 0.0115224 -0.117029 -0.993108 0.00636736 0.000510466 8355711 
0.565887 0.0869283 0.0115794 -0.0868626 -0.996207 0.00514509 0.000430962 8355711 
0.58405 0.0848754 0.0214538 -0.194969 -0.980804 -0.00332757 0.00233385 8355711 
0.583961 0.0849712 0.0114502 -0.185225 -0.982671 0.0070341 0.00259907 8355711 
0.59402 0.0827336 0.0214041 -0.272403 -0.962135 -0.00962961 0.0034072 8355711 
0.593932 0.0829295 0.0113985 -0.28013 -0.959887 -0.0120092 0.00340335 8355711 
0.603961 0.0784924 0.0213976 -0.413028 -0.910447 -0.022249 0.00325609 8355711 
0.603876 0.0788883 0.0113878 -0.409778 -0.912067 -0.0147098 0.00342888 8355711 
0.574155 0.0859215 0.0315276 -0.118609 -0.992774 -0.0182187 0.000613925 8355711 
0.584134 0.0843796 0.0314656 -0.201316 -0.97941 -0.0150939 0.00203544 8355711 
0.594108 0.0825376 0.0314098 -0.286373 -0.958047 -0.0117227 0.00255512 8355711 
0.604052 0.0784967 0.0313992 -0.410668 -0.911653 -0.0155466 0.00345322 8355711 
0.574243 0.0857256 0.0415333 -0.122151 -0.992287 -0.0211211 0.000839758 8355711 
0.584227 0.0845836 0.0414631 -0.205401 -0.978494 -0.0189844 0.00190736 8355711 
0.594192 0.0820418 0.0414217 -0.289838 -0.957033 -0.00906832 0.00234934 8355711 
0.604141 0.0784006 0.0414028 -0.408621 -0.912687 -0.00568676 0.00358057 8355711 
0.613891 0.0734516 0.0214075 -0.528699 -0.848736 -0.0111239 0.00396049 8355711 
0.607934 0.0765361 0.0214004 -0.43619 -0.899672 -0.0181236 0.00304241 8355711 
0.61381 0.0741473 0.0113916 -0.529254 -0.848463 0.00128577 0.00442546 8355711 
0.60924 0.0763121 0.0113902 -0.435102 -0.900291 -0.0127311 0.00305033 8355711 
0.6238 0.0669113 0.0214482 -0.642759 -0.766065 -0.00255251 0.00457643 8355711 
0.623712 0.0671073 0.0114426 -0.641904 -0.766784 -0.001227 0.00502974 8355711 
0.624798 0.0660918 0.0114531 -0.651185 -0.758918 -0.000895677 0.00535583 8355711 
0.624491 0.0663014 0.0214542 -0.651554 -0.7586 -0.0018413 0.00515594 8355711 
0.623881 0.0662156 0.0314642 -0.639791 -0.768506 -0.00814881 0.00467055 8355711 
0.623385 0.0665225 0.0314625 -0.639791 -0.768506 -0.00814291 0.00467062 8355711 
0.623851 0.066442 0.0278589 -0.638422 -0.769621 -0.010029 0.00399205 8355711 
0.613976 0.0730559 0.0314173 -0.529891 -0.847968 -0.012838 0.00380078 8355711 
0.607228 0.0767515 0.0314051 -0.431287 -0.902145 -0.0112313 0.00328096 8355711 
0.623967 0.0659198 0.0414719 -0.63005 -0.776398 -0.0155645 0.0046063 8355711 
0.622879 0.0667351 0.0414655 -0.621781 -0.782974 -0.018425 0.00426323 8355711 
0.614071 0.0733598 0.0414128 -0.529452 -0.848282 -0.0099574 0.00400792 8355711 
0.607121 0.0769583 0.0414044 -0.424633 -0.905361 -0.00280626 0.00347626 8355711 
-0.225917 0.116384 -0.0116163 -0.0448116 -0.998945 0.0100322 0.000171566 8355711 
-0.236006 0.116522 -0.0215272 -0.0368952 -0.999195 0.0157718 0.000254552 8355711 
-0.226013 0.11598 -0.0216097 -0.0445969 -0.998832 0.0185863 0.000183287 8355711 
-0.235914 0.116626 -0.0115277 -0.0353676 -0.999299 0.0122951 0.000250706 8355711 
-0.215923 0.115942 -0.0117008 -0.0516553 -0.99864 0.00704749 0.000240974 8355711 
-0.216015 0.115837 -0.0217004 -0.0522966 -0.998573 0.0108229 0.00026006 8355711 
-0.205934 0.115099 -0.0117772 -0.0575174 -0.998308 0.00852679 0.000293952 8355711 
-0.206019 0.115495 -0.021787 -0.0579209 -0.998293 0.00744747 0.000300913 8355711 
-0.195944 0.114357 -0.0118556 -0.064804 -0.997867 0.00785068 0.000290687 8355711 
-0.19603 0.114653 -0.0218633 -0.0586642 -0.998277 -0.000902145 0.000267727 8355711 
-0.225828 0.116288 -0.00161268 -0.0460878 -0.998937 -0.00119365 0.000102958 8355711 
-0.235822 0.11673 -0.00152813 -0.0329269 -0.999453 0.00324326 0.000243222 8355711 
-0.215839 0.115446 -0.001689 -0.0490972 -0.99878 0.00523141 0.000305916 8355711 
-0.205851 0.114504 -0.00176328 -0.0511152 -0.998568 0.0157942 0.000482543 8355711 
-0.19586 0.113861 -0.00184372 -0.0617549 -0.997826 0.0230064 0.000471268 8355711 
-0.225737 0.116292 0.00838891 -0.0512786 -0.99868 -0.00300808 9.03079e-05 8355711 
-0.235731 0.116734 0.00847345 -0.0390616 -0.999237 0.000726067 0.000265568 8355711 
-0.215747 0.11555 0.00831053 -0.0474047 -0.998871 0.00304069 0.000313367 8355711 
-0.205752 0.115107 0.00822598 -0.0441918 -0.998978 0.00952412 0.000464214 8355711 
-0.195758 0.114665 0.00814144 -0.0512672 -0.998537 0.0171784 0.000426741 8355711 
-0.185953 0.113615 -0.0119339 -0.0654268 -0.997846 0.00477954 0.000280718 8355711 
-0.186048 0.113311 -0.0219294 -0.0593092 -0.99823 -0.00432293 0.000218834 8355711 
-0.175959 0.113173 -0.0120185 -0.0511681 -0.998617 0.0121182 0.000418236 8355711 
-0.176058 0.112569 -0.0220077 -0.0511336 -0.998692 -0.000511637 0.000283814 8355711 
-0.165963 0.112831 -0.0121051 -0.0263921 -0.999508 0.0169333 0.000492742 8355711 
-0.166067 0.111927 -0.0220882 -0.0337782 -0.999429 0.0011036 0.000378035 8355711 
-0.155965 0.112688 -0.0121958 0.000240299 -0.99996 0.00889645 0.000466814 8355711 
-0.15607 0.111684 -0.0221768 -0.00810829 -0.999951 0.0056598 0.000579639 8355711 
-0.185866 0.113419 -0.00192826 -0.0625646 -0.997765 0.0234791 0.000376471 8355711 
-0.175874 0.112777 -0.0020087 -0.0511587 -0.998094 0.0345091 0.000343808 8355711 
-0.165878 0.112435 -0.00209529 -0.0332995 -0.99896 0.0311497 0.000435646 8355711 
-0.155875 0.112592 -0.00219215 -0.00600243 -0.999849 0.016309 0.000474911 8355711 
-0.185759 0.114523 0.00805074 -0.050879 -0.998458 0.0222017 0.00038161 8355711 
-0.175773 0.113481 0.00797851 -0.0445507 -0.998738 0.0232047 0.000423963 8355711 
-0.165786 0.112539 0.00790423 -0.0393799 -0.999025 0.0199448 0.000474862 8355711 
-0.15578 0.112896 0.00780327 -0.0269582 -0.999623 0.00526439 0.000424222 8355711 
-0.145965 0.112646 -0.0122885 0.000106469 -0.999982 0.0060582 0.000497035 8355711 
-0.146057 0.112542 -0.0222881 -0.00701909 -0.999817 0.0178037 0.000711394 8355711 
-0.135968 0.112404 -0.0123772 -0.0152171 -0.999873 0.00481892 0.00059403 8355711 
-0.136043 0.113499 -0.0224013 -0.0149718 -0.999583 0.0247082 0.000887126 8355711 
-0.125971 0.112161 -0.0124658 -0.0380884 -0.999274 -0.000932853 0.000454954 8355711 
-0.126051 0.112857 -0.0224818 -0.0338839 -0.999174 0.0224167 0.000775031 8355711 
-0.115973 0.111919 -0.0125545 -0.0472564 -0.998881 0.00172149 0.000406353 8355711 
-0.11606 0.112215 -0.0225622 -0.0432447 -0.998809 0.0225783 0.00070637 8355711 
-0.145875 0.11255 -0.0022849 -0.00299855 -0.999952 0.00931077 0.000447317 8355711 
-0.135875 0.112507 -0.00237766 -0.0161712 -0.999866 0.0023627 0.000464964 8355711 
-0.125885 0.111765 -0.00245605 -0.0361162 -0.999317 -0.00784412 0.000269502 8355711 
-0.11589 0.111423 -0.00254264 -0.0456944 -0.998924 -0.00789982 0.000261772 8355711 
-0.145778 0.113054 0.00770641 -0.0226084 -0.999743 0.00168651 0.000383703 8355711 
-0.135779 0.112911 0.0076157 -0.0265103 -0.999636 -0.00499823 0.000277443 8355711 
-0.12579 0.112069 0.00753938 -0.0311616 -0.999482 -0.00799208 0.000297356 8355711 
-0.115797 0.111527 0.00745689 -0.0332424 -0.999441 -0.00357709 0.000300343 8355711 
-0.105982 0.111277 -0.0126349 -0.0290711 -0.99954 0.00860309 0.00045148 8355711 
-0.106066 0.111772 -0.0226468 -0.0273547 -0.999299 0.0255395 0.000564044 8355711 
-0.0959902 0.110634 -0.0127154 -0.0294202 -0.99951 0.010717 0.000307396 8355711 
-0.0960753 0.11103 -0.0227251 -0.0291168 -0.999373 0.0201453 0.000371414 8355711 
-0.0859874 0.110792 -0.0128122 -0.0303937 -0.999444 0.0137134 0.000293923 8355711 
-0.0860711 0.111288 -0.0228241 -0.0283718 -0.999475 0.0156752 0.000267309 8355711 
-0.0759958 0.11015 -0.0128927 -0.0296675 -0.999465 0.013758 0.000286616 8355711 
-0.0760852 0.110246 -0.0228963 -0.0247786 -0.999557 0.0164949 0.00024492 8355711 
-0.10589 0.111381 -0.00263539 -0.0320071 -0.999485 -0.00238041 0.000306632 8355711 
-0.0958895 0.111338 -0.00272815 -0.0308324 -0.999524 0.00136256 0.00024806 8355711 
-0.0858868 0.111496 -0.00282501 -0.028033 -0.999595 0.00487431 0.000286652 8355711 
-0.075898 0.110654 -0.00290134 -0.0325945 -0.999412 0.0106237 0.000254597 8355711 
-0.105797 0.111485 0.00736413 -0.0240431 -0.999699 0.00493869 0.000247084 8355711 
-0.0957959 0.111542 0.00726932 -0.0238151 -0.999698 0.00611826 0.000220277 8355711 
-0.0857974 0.1114 0.00717862 -0.0216431 -0.99973 0.00844238 0.000236579 8355711 
-0.07581 0.110458 0.00710435 -0.032942 -0.999396 0.0110838 0.000242455 8355711 
-0.0659973 0.110007 -0.0129834 -0.039639 -0.999155 0.0108739 0.000160383 8355711 
-0.0660866 0.110103 -0.022987 -0.0365508 -0.99923 0.0142727 0.000170627 8355711 
-0.0559959 0.110065 -0.0130782 -0.0286258 -0.999554 0.00849674 8.13852e-05 8355711 
-0.0560923 0.109661 -0.0230715 -0.029242 -0.999519 0.0103013 6.61414e-05 8355711 
-0.0459987 0.109823 -0.0131668 -0.0363005 -0.999335 0.00352619 0.000128586 8355711 
-0.0461008 0.109019 -0.023152 -0.0340897 -0.999351 0.0116078 7.84048e-05 8355711 
-0.0360044 0.10938 -0.0132514 -0.0291552 -0.999575 -0.000722477 0.000206711 8355711 
-0.0361022 0.108876 -0.0232427 -0.0270691 -0.999548 0.0130557 0.000113221 8355711 
-0.0658995 0.110511 -0.00299204 -0.0362744 -0.99926 0.0127961 0.00021572 8355711 
-0.0559065 0.109969 -0.00307453 -0.0258748 -0.999524 0.0168245 7.01795e-05 8355711 
-0.0459107 0.109627 -0.00316112 -0.0379448 -0.999201 0.0125274 0.000160065 8355711 
-0.0359122 0.109484 -0.00325182 -0.0318233 -0.999466 0.00745907 0.000281961 8355711 
-0.0658115 0.110315 0.00701364 -0.0367906 -0.999293 0.00778614 0.000204612 8355711 
-0.0558171 0.109873 0.0069291 -0.0264268 -0.999619 0.00790958 0.000139455 8355711 
-0.0458172 0.109831 0.00683635 -0.0343981 -0.999384 0.00697209 0.000219493 8355711 
-0.0358242 0.109289 0.00675386 -0.0279782 -0.999584 0.00693652 0.000292753 8355711 
-0.0260086 0.109038 -0.0133379 -0.015709 -0.999868 0.00421089 0.000289293 8355711 
-0.0261036 0.108734 -0.0233334 -0.0198244 -0.999621 0.0191224 0.000131184 8355711 
-0.0160072 0.109096 -0.0134328 -0.0101596 -0.999938 0.00446232 0.000298154 8355711 
-0.0160994 0.108992 -0.0234323 -0.0177048 -0.99956 0.0237784 0.0001626 8355711 
-0.00601149 0.108753 -0.0135193 -0.0152024 -0.999867 0.00590375 0.000372773 8355711 
-0.00610649 0.108449 -0.0235148 -0.0211854 -0.999336 0.0296572 0.000209328 8355711 
0.0039927 0.109011 -0.0136183 -0.038825 -0.999213 0.00816169 0.000517142 8355711 
0.00389208 0.108307 -0.0236055 -0.0343187 -0.998793 0.0351321 0.000208379 8355711 
-0.0259206 0.108842 -0.00333226 -0.018052 -0.999772 0.0114418 0.000380594 8355711 
-0.0159207 0.1088 -0.00342502 -0.00943588 -0.999937 0.0060024 0.0003119 8355711 
-0.00591368 0.109257 -0.00352803 -0.0128713 -0.999911 0.00362317 0.000318545 8355711 
0.00408067 0.108815 -0.00361258 -0.0375498 -0.999295 0.000606145 0.000384861 8355711 
-0.0258369 0.108346 0.00667958 -0.0160647 -0.999814 0.0107103 0.000367149 8355711 
-0.0158369 0.108304 0.00658682 -0.0131468 -0.999887 0.00735935 0.000339376 8355711 
-0.00582429 0.109161 0.0064756 -0.013379 -0.999892 0.00610939 0.00035607 8355711 
0.00416725 0.108519 0.00639516 -0.0371137 -0.999296 0.00552171 0.000417354 8355711 
0.0139856 0.108469 -0.0137007 -0.0464599 -0.998815 0.0145296 0.000433793 8355711 
0.0138892 0.108065 -0.0236941 -0.0396883 -0.998421 0.0397565 0.00014256 8355711 
0.0239744 0.107627 -0.0137771 -0.039234 -0.999078 0.0174524 0.000581951 8355711 
0.0238822 0.107522 -0.0237766 -0.0370518 -0.998474 0.0409479 0.000202715 8355711 
0.0339745 0.107584 -0.0138698 -0.0361289 -0.999214 0.0162865 0.000561679 8355711 
0.0338753 0.10698 -0.0238591 -0.0358768 -0.99869 0.0364825 0.00021295 8355711 
0.0439632 0.106742 -0.0139462 -0.0416599 -0.999014 0.0153692 0.00063415 8355711 
0.0438668 0.106338 -0.0239395 -0.0407674 -0.998525 0.0358718 0.000240073 8355711 
0.0140722 0.108173 -0.00369301 -0.0470475 -0.998877 0.00550181 0.000309446 8355711 
0.024068 0.107831 -0.00377961 -0.037729 -0.999283 0.0031381 0.000471793 8355711 
0.0340695 0.107888 -0.00387442 -0.0375161 -0.999283 0.00513354 0.000488092 8355711 
0.0440722 0.108046 -0.00397127 -0.0417187 -0.999125 0.00303009 0.000544687 8355711 
0.0141574 0.107777 0.00631678 -0.0473506 -0.998875 0.00255444 0.000337497 8355711 
0.0241433 0.106735 0.00624455 -0.0322145 -0.999475 0.00350197 0.00045422 8355711 
0.0341448 0.106792 0.00614975 -0.0342956 -0.999378 0.00821063 0.000523403 8355711 
0.0441518 0.10725 0.00604672 -0.041233 -0.99913 0.0062946 0.000617929 8355711 
0.0539562 0.1062 -0.0140287 -0.0515969 -0.998499 0.0183699 0.000530387 8355711 
0.0538626 0.105996 -0.0240261 -0.0502357 -0.998161 0.0339388 0.000221045 8355711 
0.0639589 0.106357 -0.0141255 -0.0466587 -0.998737 0.0186146 0.000568666 8355711 
0.0638597 0.105753 -0.0241148 -0.0449129 -0.998507 0.0310915 0.000301411 8355711 
0.0739477 0.105515 -0.0142018 -0.0310287 -0.9994 0.0153628 0.000433575 8355711 
0.0738569 0.105511 -0.0242034 -0.0336619 -0.999037 0.0281453 0.000196179 8355711 
0.0839448 0.105273 -0.0142905 -0.0220276 -0.999533 0.0211799 0.000390479 8355711 
0.0838484 0.104869 -0.0242839 -0.0271151 -0.999089 0.0329452 0.000169795 8355711 
0.054054 0.106704 -0.00403734 -0.0500317 -0.99872 0.0073932 0.000465402 8355711 
0.0640455 0.106062 -0.00411778 -0.0408514 -0.999111 0.0104505 0.000535676 8355711 
0.0740398 0.105619 -0.00420232 -0.0290255 -0.999542 0.00859104 0.000303411 8355711 
0.0840454 0.105977 -0.00430329 -0.0230563 -0.999722 0.0049766 0.000329298 8355711 
0.0541377 0.106208 0.0059745 -0.0527977 -0.998563 0.00921115 0.000491119 8355711 
0.0641236 0.105166 0.00590228 -0.048868 -0.998755 0.0100623 0.000478691 8355711 
0.0741236 0.105123 0.00580952 -0.0325904 -0.999445 0.00684397 0.000343786 8355711 
0.0841306 0.105581 0.0057065 -0.0248698 -0.999686 0.00297171 0.000316027 8355711 
0.0939392 0.104831 -0.014375 -0.0301074 -0.999153 0.0280312 0.000236727 8355711 
0.0938442 0.104527 -0.0243705 -0.0315008 -0.99907 0.0294395 0.000167694 8355711 
0.103938 0.104688 -0.0144657 -0.0343467 -0.998944 0.0305089 0.000171576 8355711 
0.103843 0.104384 -0.0244612 -0.0369413 -0.998845 0.0307335 0.000165155 8355711 
0.113932 0.104246 -0.0145503 -0.0277408 -0.999108 0.0318513 0.000181329 8355711 
0.113836 0.103842 -0.0245436 -0.0301573 -0.999116 0.0292737 0.000169171 8355711 
0.123926 0.103804 -0.0146348 -0.0359844 -0.998851 0.0316607 0.000283325 8355711 
0.12384 0.1041 -0.0246426 -0.033868 -0.99915 0.023504 0.000298432 8355711 
0.0940412 0.105634 -0.00438988 -0.0313247 -0.999412 0.013959 0.000206246 8355711 
0.104038 0.105392 -0.00447853 -0.0344994 -0.999299 0.0145102 0.000212361 8355711 
0.114027 0.10455 -0.00455485 -0.0275238 -0.999517 0.0144476 0.000229449 8355711 
0.124021 0.104108 -0.0046394 -0.0345618 -0.999278 0.015776 0.000227101 8355711 
0.094125 0.105139 0.00562196 -0.0328656 -0.999439 0.0063988 0.000211186 8355711 
0.104128 0.105296 0.0055251 -0.0367209 -0.999325 -0.000389101 0.000166085 8355711 
0.114119 0.104654 0.00544467 -0.0294266 -0.999567 0.000661599 0.000251306 8355711 
0.124118 0.104512 0.00535396 -0.0371032 -0.999309 0.00205561 0.000259701 8355711 
0.153895 0.102154 -0.0159821 -0.0325543 -0.999254 0.020757 0.000684133 8355711 
0.150712 0.102017 -0.0248516 -0.0361876 -0.999272 0.0120746 0.000773228 8355711 
0.153806 0.101573 -0.0248715 -0.0259645 -0.999627 0.00850001 0.00103832 8355711 
0.163805 0.101431 -0.0249622 -0.0130176 -0.9999 0.0055323 0.000836588 8355711 
0.16387 0.101961 -0.0185721 -0.0114581 -0.99989 0.00944523 0.000589649 8355711 
0.164091 0.102443 0.00502196 -0.0120083 -0.999846 0.0127908 0.000315123 8355711 
0.159792 0.102504 0.00506096 -0.02033 -0.999718 0.0123148 0.000471893 8355711 
0.164086 0.102432 0.004522 -0.0114129 -0.999779 0.0176493 0.000361623 8355711 
0.154116 0.102636 0.00761197 -0.0227624 -0.999652 0.0133561 0.00040841 8355711 
0.133922 0.103461 -0.0147214 -0.0478202 -0.998488 0.0270918 0.000404012 8355711 
0.133834 0.103657 -0.0247271 -0.0442235 -0.998929 0.0136184 0.000514579 8355711 
0.143915 0.102919 -0.0148039 -0.051258 -0.998421 0.0229596 0.000288654 8355711 
0.143826 0.103015 -0.0248075 -0.04622 -0.998878 0.0103336 0.000538755 8355711 
0.153907 0.102277 -0.0148843 -0.0321031 -0.999218 0.0230954 0.000651514 8355711 
0.163908 0.102335 -0.0149791 -0.0149496 -0.99971 0.0188736 0.000502361 8355711 
0.134021 0.104065 -0.00473215 -0.0519051 -0.998436 0.0207863 0.000292768 8355711 
0.144013 0.103423 -0.00481259 -0.0513942 -0.998392 0.0239064 0.000253215 8355711 
0.154006 0.102881 -0.00489508 -0.0284967 -0.999307 0.0239612 0.000575711 8355711 
0.164007 0.102938 -0.00498988 -0.0120943 -0.999628 0.0244338 0.000368648 8355711 
0.134122 0.104769 0.00525506 -0.0451844 -0.998927 0.0101789 0.00022417 8355711 
0.144109 0.103827 0.00518077 -0.0405733 -0.999087 0.0133866 0.000278969 8355711 
0.154094 0.102685 0.0051106 -0.0225063 -0.999674 0.0120753 0.000475128 8355711 
0.171609 0.101719 -0.0250412 -0.0180758 -0.99982 0.0057976 0.000737459 8355711 
0.193893 0.101108 -0.0152348 -0.0545602 -0.998423 0.013191 0.000316978 8355711 
0.1894 0.101672 -0.0152043 -0.0451009 -0.998834 0.0172299 0.000568729 8355711 
0.193805 0.101304 -0.0252405 -0.0529656 -0.998582 -0.00541297 0.00040272 8355711 
0.189907 0.101459 -0.0252072 -0.0367302 -0.999323 0.0018825 0.00060819 8355711 
0.203881 0.100265 -0.0153112 -0.050056 -0.998721 0.00714586 0.000440368 8355711 
0.203792 0.100361 -0.0253148 -0.0498291 -0.998696 -0.0111111 0.000274268 8355711 
0.193989 0.101512 -0.00524146 -0.0591701 -0.99796 0.023973 0.000207809 8355711 
0.190494 0.101861 -0.00521587 -0.0464337 -0.998704 0.0208421 0.000349482 8355711 
0.203978 0.100669 -0.00531779 -0.0484843 -0.99856 0.0229683 0.000454969 8355711 
0.164791 0.102433 0.00501561 -0.0144297 -0.999814 0.0128155 0.000333771 8355711 
0.19408 0.101516 0.00476012 -0.0515358 -0.998439 0.0215277 0.000296454 8355711 
0.186288 0.102126 0.0048206 -0.0420157 -0.999012 0.0144987 0.000330718 8355711 
0.204074 0.101073 0.00467558 -0.0382128 -0.998549 0.0379509 0.00045841 8355711 
0.17381 0.101788 -0.0250632 -0.0132654 -0.99989 0.00657039 0.000766571 8355711 
0.173917 0.102892 -0.0150842 -0.0117131 -0.999751 0.0190146 0.0004054 8355711 
0.183911 0.10245 -0.0151688 -0.0319066 -0.999359 0.0162521 0.000476505 8355711 
0.18381 0.101746 -0.025156 -0.034937 -0.999367 0.00677137 0.000640897 8355711 
0.174007 0.102896 -0.00508264 -0.0127875 -0.99967 0.0222937 0.000367286 8355711 
0.184003 0.102554 -0.00516924 -0.0349767 -0.99921 0.0188696 0.000422013 8355711 
0.174098 0.1029 0.00491894 -0.0177746 -0.999732 0.014851 0.00037621 8355711 
0.18409 0.102258 0.0048385 -0.0380112 -0.999193 0.0129764 0.000415168 8355711 
0.213874 0.0997232 -0.0153936 -0.0421509 -0.999072 0.00889772 0.000531394 8355711 
0.213795 0.100519 -0.0254116 -0.0413681 -0.999033 -0.0148647 0.000190074 8355711 
0.22387 0.0993811 -0.0154802 -0.0347212 -0.999333 0.0113366 0.000553469 8355711 
0.223795 0.100477 -0.0255044 -0.0363743 -0.999266 -0.0120279 0.000218778 8355711 
0.233866 0.0990388 -0.0155668 -0.0327523 -0.999293 0.0184542 0.000501048 8355711 
0.233788 0.0999343 -0.0255869 -0.0340472 -0.999384 -0.00851884 0.00035229 8355711 
0.243867 0.0990964 -0.0156617 -0.025458 -0.999462 0.0206642 0.000501894 8355711 
0.243776 0.0990921 -0.0256632 -0.0237622 -0.999717 0.00149794 0.00035152 8355711 
0.213969 0.100027 -0.00539823 -0.0384251 -0.998924 0.0259518 0.000503112 8355711 
0.223964 0.0995851 -0.00548277 -0.0342047 -0.999124 0.0241238 0.000545244 8355711 
0.233962 0.0994428 -0.00557347 -0.0358148 -0.999088 0.0232593 0.000598935 8355711 
0.243966 0.0997001 -0.00567238 -0.0315606 -0.999272 0.0214347 0.000593337 8355711 
0.214071 0.100831 0.00458693 -0.0332455 -0.998362 0.0465546 0.000311402 8355711 
0.224073 0.100889 0.00449213 -0.0332011 -0.998563 0.0420797 0.00042773 8355711 
0.23407 0.100646 0.00440347 -0.0375241 -0.998584 0.0376965 0.000477196 8355711 
0.244059 0.0998042 0.00432714 -0.035694 -0.998899 0.0304555 0.000567824 8355711 
0.253862 0.098654 -0.0157462 -0.0233937 -0.999574 0.0174351 0.000361179 8355711 
0.253769 0.0985501 -0.0257457 -0.0220523 -0.999731 0.00714857 0.000248667 8355711 
0.263862 0.0986117 -0.0158389 -0.0230743 -0.999577 0.0177056 0.000263659 8355711 
0.263776 0.0990074 -0.0258487 -0.0319356 -0.999423 0.0115689 0.000244661 8355711 
0.273854 0.0980694 -0.0159214 -0.0396962 -0.999045 0.0182854 0.000372439 8355711 
0.273774 0.0987652 -0.0259374 -0.0443577 -0.998974 0.00910974 0.000272646 8355711 
0.28385 0.0977271 -0.016008 -0.0437165 -0.998873 0.0185052 0.000319165 8355711 
0.283764 0.0980229 -0.0260157 -0.0463727 -0.998898 0.00717566 0.000275592 8355711 
0.253966 0.0996579 -0.00576514 -0.0252497 -0.999542 0.0166658 0.000426651 8355711 
0.263964 0.0994154 -0.00585379 -0.0251313 -0.999543 0.0167933 0.000299286 8355711 
0.273952 0.0985732 -0.00593011 -0.0384774 -0.999022 0.0217605 0.000332127 8355711 
0.283948 0.0982309 -0.00601671 -0.0433509 -0.998745 0.02507 0.000256869 8355711 
0.254056 0.0995618 0.0042385 -0.0287332 -0.999421 0.018207 0.000359257 8355711 
0.264054 0.0994194 0.0041478 -0.0289156 -0.999497 0.0130348 0.000266235 8355711 
0.274049 0.0989772 0.00406325 -0.0420164 -0.999042 0.0122242 0.000281632 8355711 
0.284047 0.0988349 0.00397255 -0.041307 -0.999061 0.0130792 0.000314825 8355711 
0.293842 0.0970849 -0.0160885 -0.0366825 -0.999261 0.0115001 0.000390308 8355711 
0.29375 0.0969808 -0.026088 -0.0304652 -0.999533 0.00234828 0.000318034 8355711 
0.30384 0.0969426 -0.0161792 -0.0238624 -0.999637 0.012491 0.00033819 8355711 
0.30375 0.0969385 -0.0261807 -0.0181268 -0.999827 0.00408544 0.000283087 8355711 
0.313846 0.0973 -0.0162801 -0.0227446 -0.999617 0.0157955 0.000398093 8355711 
0.313761 0.0976959 -0.0262899 -0.0217885 -0.99975 0.00506615 0.000491269 8355711 
0.323846 0.0972578 -0.0163729 -0.0357022 -0.99922 0.0168822 0.000571539 8355711 
0.323758 0.0974535 -0.0263786 -0.0425074 -0.999039 0.0106931 0.000617206 8355711 
0.293944 0.0978888 -0.00610331 -0.0373874 -0.999046 0.0225534 0.000337536 8355711 
0.303937 0.0973465 -0.0061858 -0.0257906 -0.999575 0.013576 0.000374214 8355711 
0.313934 0.0971041 -0.00627443 -0.0240148 -0.999574 0.0165913 0.000463485 8355711 
0.323931 0.0968618 -0.00636309 -0.0356898 -0.999241 0.0156184 0.000563569 8355711 
0.294039 0.0981927 0.00389212 -0.0349304 -0.999299 0.0134518 0.000328152 8355711 
0.304039 0.0981502 0.00379937 -0.0310302 -0.999482 0.0085514 0.000318233 8355711 
0.314026 0.0972082 0.00372509 -0.0270891 -0.999633 0.000534509 0.000415546 8355711 
0.324028 0.0972658 0.00363028 -0.0313407 -0.999492 -0.00572517 0.000497793 8355711 
0.333833 0.0963155 -0.0164472 -0.0320567 -0.999291 0.0197356 0.000497448 8355711 
0.33373 0.0954117 -0.0264303 -0.0450586 -0.998756 0.0213487 0.000502876 8355711 
0.343831 0.0960733 -0.0165358 -0.0310157 -0.999271 0.022265 0.000459708 8355711 
0.343723 0.0948694 -0.0265127 -0.0345484 -0.999076 0.0255754 0.00048625 8355711 
0.353831 0.0960308 -0.0166286 -0.0186478 -0.999472 0.0266007 0.000319474 8355711 
0.353734 0.0956268 -0.0266219 -0.0187986 -0.999422 0.0283214 0.000348414 8355711 
0.363829 0.0958884 -0.0167193 -0.0204125 -0.999596 0.0197977 0.000249866 8355711 
0.363737 0.0957846 -0.0267188 -0.0148432 -0.999619 0.0232527 0.000243256 8355711 
0.333935 0.0971194 -0.00646201 -0.0286122 -0.999457 0.0163132 0.000574035 8355711 
0.343928 0.0965771 -0.0065445 -0.0295537 -0.999437 0.0158816 0.000569779 8355711 
0.353926 0.0963349 -0.00663313 -0.0214224 -0.999596 0.0186562 0.000466075 8355711 
0.36392 0.0958925 -0.00671768 -0.023602 -0.999657 0.0113931 0.000328191 8355711 
0.334025 0.0970234 0.00354162 -0.0242996 -0.999688 -0.0057595 0.000471544 8355711 
0.344022 0.0967811 0.00345299 -0.0229682 -0.999713 -0.00687535 0.000395032 8355711 
0.354023 0.0968387 0.00335817 -0.0207734 -0.999765 -0.00627565 0.000461213 8355711 
0.364009 0.0957966 0.00328595 -0.0266972 -0.999643 0.000814644 0.000310629 8355711 
0.373825 0.0955461 -0.0168059 -0.0294443 -0.99951 0.0105999 0.000120399 8355711 
0.373734 0.0955421 -0.0268074 -0.0206117 -0.999628 0.0178515 0.000217183 8355711 
0.383823 0.0954038 -0.0168966 -0.0340832 -0.999413 0.00343635 0.000114709 8355711 
0.383734 0.0954998 -0.0269002 -0.0285669 -0.99952 0.0120035 0.000197314 8355711 
0.393816 0.0948617 -0.0169791 -0.0456524 -0.998953 0.00307465 0.000143979 8355711 
0.39373 0.0951575 -0.0269868 -0.0419252 -0.999087 0.00820909 0.000172134 8355711 
0.403808 0.0942193 -0.0170595 -0.0529234 -0.998599 0.000268538 8.1969e-05 8355711 
0.403719 0.0943154 -0.0270631 -0.0515794 -0.998655 0.00527472 9.49853e-05 8355711 
0.373917 0.0956502 -0.00680633 -0.034193 -0.999411 0.00283903 0.000163456 8355711 
0.383909 0.0950081 -0.00688676 -0.0396767 -0.999197 -0.00556435 0.000127658 8355711 
0.393904 0.0946658 -0.00697337 -0.0501131 -0.998732 -0.00481588 0.000100759 8355711 
0.403902 0.0944233 -0.00706201 -0.0502218 -0.99873 -0.00399843 0.00011574 8355711 
0.374009 0.0957542 0.0031932 -0.038879 -0.999231 0.00499125 9.90103e-05 8355711 
0.384006 0.0955119 0.00310454 -0.042583 -0.999093 0.000571353 0.000123722 8355711 
0.393999 0.0949696 0.00302206 -0.0524186 -0.998625 -0.00108841 8.5208e-05 8355711 
0.403988 0.0941275 0.00294574 -0.0488419 -0.998806 0.000442839 0.000112515 8355711 
0.413802 0.0937771 -0.017144 -0.0523586 -0.998628 0.000575507 6.73154e-05 8355711 
0.41371 0.0936732 -0.0271435 -0.0540796 -0.998518 0.00616663 7.40752e-05 8355711 
0.423798 0.0934348 -0.0172306 -0.0522041 -0.998626 0.00451418 6.72361e-05 8355711 
0.423705 0.0932308 -0.0272281 -0.0555707 -0.998426 0.00758841 5.60986e-05 8355711 
0.43379 0.0927926 -0.0173111 -0.0550141 -0.998454 0.00790215 0.000102123 8355711 
0.4337 0.0928885 -0.0273147 -0.0566457 -0.998369 0.00711942 7.36643e-05 8355711 
0.443777 0.0918506 -0.0173853 -0.05822 -0.998295 0.0040762 5.8204e-05 8355711 
0.443692 0.0922463 -0.0273951 -0.0587853 -0.998248 0.00667934 9.55536e-05 8355711 
0.413893 0.0937811 -0.00714245 -0.045178 -0.998979 -0.000697531 0.000140514 8355711 
0.423886 0.0932391 -0.00722493 -0.0454018 -0.99896 0.00415569 0.00014513 8355711 
0.433879 0.0926968 -0.00730742 -0.0549092 -0.998462 0.00770707 0.00012871 8355711 
0.443869 0.0919545 -0.0073858 -0.0585901 -0.998241 0.00909887 8.62989e-05 8355711 
0.413981 0.0935854 0.00286324 -0.0420916 -0.999113 0.000854284 0.000138341 8355711 
0.423978 0.093343 0.00277459 -0.0460496 -0.998937 0.00197467 0.000179828 8355711 
0.433975 0.0931007 0.00268594 -0.0556009 -0.998433 0.00625283 0.000170505 8355711 
0.443966 0.0923585 0.00260756 -0.0584976 -0.998236 0.0101207 0.00012133 8355711 
0.45377 0.0913083 -0.0174678 -0.0554778 -0.998443 0.00572247 7.81383e-05 8355711 
0.453683 0.0916041 -0.0274755 -0.0552918 -0.998441 0.00763195 0.000113642 8355711 
0.463767 0.0910658 -0.0175565 -0.0470758 -0.998872 0.0061755 7.94733e-05 8355711 
0.463676 0.0910618 -0.027558 -0.0464263 -0.998873 0.00989223 0.000108707 8355711 
0.473763 0.0907238 -0.0176431 -0.0383155 -0.999243 0.00677528 8.18202e-05 8355711 
0.473664 0.0901198 -0.0276323 -0.0394676 -0.999137 0.0129313 9.24925e-05 8355711 
0.48376 0.0904813 -0.0177317 -0.0361965 -0.999317 0.00737904 6.60407e-05 8355711 
0.483662 0.0899775 -0.027723 -0.0374053 -0.999208 0.0136006 7.15391e-05 8355711 
0.453861 0.0913123 -0.00746624 -0.0554915 -0.998388 0.0118961 0.000106795 8355711 
0.463856 0.09097 -0.00755284 -0.0451935 -0.998916 0.0111289 9.91493e-05 8355711 
0.473852 0.0906277 -0.00763944 -0.0355384 -0.99928 0.0133125 9.00523e-05 8355711 
0.483849 0.0903855 -0.00772807 -0.0376684 -0.999193 0.0139407 7.804e-05 8355711 
0.453954 0.0915163 0.00253123 -0.0505456 -0.998667 0.0104496 0.000147098 8355711 
0.463949 0.0910741 0.00244668 -0.0370719 -0.999257 0.0105766 7.46803e-05 8355711 
0.473946 0.0908317 0.00235805 -0.0330595 -0.999389 0.0113286 4.78302e-05 8355711 
0.483939 0.0902896 0.00227554 -0.0392468 -0.999179 0.0100893 5.81016e-05 8355711 
0.493756 0.090139 -0.0178183 -0.0400143 -0.999175 0.0069044 0.000104437 8355711 
0.493661 0.0898351 -0.0278137 -0.0409352 -0.999069 0.0135937 0.000111426 8355711 
0.503747 0.0894968 -0.0178987 -0.0446778 -0.998977 0.00699509 8.6081e-05 8355711 
0.503655 0.0893929 -0.0278983 -0.0450377 -0.998863 0.0156365 0.0001051 8355711 
0.513736 0.0886547 -0.0179751 -0.0482325 -0.998787 0.00989146 0.000183264 8355711 
0.513648 0.0888506 -0.0279808 -0.0476527 -0.998677 0.0193134 0.000183568 8355711 
0.523737 0.0887123 -0.0180699 -0.0459931 -0.998862 0.0126244 0.000218495 8355711 
0.523644 0.0885083 -0.0280673 -0.0474247 -0.998645 0.0214472 0.000195426 8355711 
0.493845 0.0900431 -0.00781468 -0.0440861 -0.998921 0.0145838 9.60367e-05 8355711 
0.503837 0.089401 -0.00789511 -0.0449641 -0.998909 0.012593 0.000103463 8355711 
0.513832 0.0890586 -0.00798171 -0.0432873 -0.999008 0.0104547 0.00011268 8355711 
0.523828 0.0887163 -0.0080683 -0.0386219 -0.999214 0.00894234 8.22749e-05 8355711 
0.493936 0.0900472 0.0021869 -0.0475913 -0.998821 0.0095888 7.27818e-05 8355711 
0.503932 0.0897048 0.0021003 -0.0458125 -0.998892 0.0107308 0.000104408 8355711 
0.51392 0.0888627 0.00202398 -0.04215 -0.99907 0.00903287 0.000121363 8355711 
0.523918 0.0886205 0.00193532 -0.037862 -0.999253 0.00768824 8.81572e-05 8355711 
0.533736 0.0885699 -0.0181606 -0.0425886 -0.998982 0.0148569 0.000258948 8355711 
0.533638 0.0880661 -0.0281519 -0.0451907 -0.998554 0.0291061 0.000237914 8355711 
0.543729 0.0880276 -0.0182431 -0.0499354 -0.998643 0.0148031 0.00025848 8355711 
0.543631 0.0875238 -0.0282344 -0.0498938 -0.998236 0.0321829 0.000190546 8355711 
0.553726 0.0877854 -0.0183317 -0.0525761 -0.998518 0.0140456 0.000269425 8355711 
0.553627 0.0871815 -0.028321 -0.0519249 -0.998087 0.0335671 0.000203711 8355711 
0.563719 0.0872431 -0.0184142 -0.0695038 -0.997527 0.0104754 0.000317213 8355711 
0.563616 0.0863393 -0.0283973 -0.0679596 -0.99723 0.0302271 0.000305903 8355711 
0.5638 0.0865473 -0.00839827 -0.0751289 -0.997155 0.00605927 0.000260069 8355711 
0.5632 0.0865559 -0.00839283 -0.074083 -0.997243 0.00417595 0.000242402 8355711 
0.563797 0.0865412 -0.00869824 -0.0750258 -0.997168 0.0051006 0.000248942 8355711 
0.533824 0.088374 -0.00815489 -0.0426018 -0.999071 0.00653247 0.00013412 8355711 
0.543817 0.0878319 -0.0082374 -0.0512657 -0.998659 0.00717508 0.000174629 8355711 
0.553807 0.0870896 -0.00831578 -0.0584801 -0.998276 0.00506431 0.000191293 8355711 
0.563888 0.0863516 0.0016074 -0.0759109 -0.997111 0.00277187 0.000256648 8355711 
0.557495 0.0868425 0.00165725 -0.0670147 -0.997743 0.0041236 0.00028038 8355711 
0.533912 0.0881783 0.00185078 -0.0401409 -0.999167 0.00734341 0.000153508 8355711 
0.543909 0.0879358 0.00176213 -0.050541 -0.998699 0.00670029 0.000168088 8355711 
0.553899 0.0871938 0.00168374 -0.0580448 -0.998306 0.00398474 0.000184135 8355711 
0.563959 0.0868941 0.00859741 -0.0751604 -0.997171 0.000156352 0.000258305 8355711 
0.573681 0.0861479 -0.0210859 -0.114824 -0.993317 0.0116667 0.000773934 8355711 
0.568212 0.0860739 -0.0284349 -0.0941785 -0.995123 0.0293511 0.000985992 8355711 
0.573609 0.085797 -0.0284798 -0.119006 -0.992482 0.0286 0.00105347 8355711 
0.574305 0.0861925 -0.0184919 -0.11622 -0.993212 0.00473693 0.000833483 8355711 
0.58369 0.085059 -0.0185566 -0.192522 -0.981254 0.00869708 0.00225745 8355711 
0.583592 0.0845552 -0.0285479 -0.189718 -0.981468 0.0269706 0.00192099 8355711 
0.59365 0.0822174 -0.0185919 -0.265803 -0.963912 0.0149209 0.00259271 8355711 
0.593561 0.0823135 -0.0285955 -0.260176 -0.965109 0.0295372 0.00188611 8355711 
0.603607 0.079076 -0.018621 -0.388955 -0.921202 0.0100632 0.00333172 8355711 
0.603514 0.078972 -0.0286205 -0.378786 -0.925342 0.0162259 0.00282225 8355711 
0.573707 0.0863011 -0.0184885 -0.115616 -0.993275 0.00612297 0.000810515 8355711 
0.573714 0.0862214 -0.0174868 -0.116316 -0.99319 0.00663891 0.000790393 8355711 
0.573792 0.0859052 -0.00847869 -0.118014 -0.993011 0.00105564 0.000731466 8355711 
0.583776 0.0847632 -0.00854888 -0.18349 -0.98302 0.00192087 0.00236797 8355711 
0.593745 0.0825215 -0.00859649 -0.275662 -0.961178 0.0120966 0.00255631 8355711 
0.603697 0.0790802 -0.00861942 -0.39493 -0.918641 0.011336 0.00373826 8355711 
0.57388 0.0857092 0.00152698 -0.121091 -0.992635 0.00349881 0.000673929 8355711 
0.583867 0.0847672 0.0014527 -0.188982 -0.981978 -0.00229575 0.00243605 8355711 
0.593842 0.0829255 0.00139689 -0.279781 -0.960064 -0.000708595 0.00269348 8355711 
0.603788 0.0790842 0.00138215 -0.40269 -0.915336 -0.000328375 0.00351679 8355711 
0.613541 0.0743352 -0.0186173 -0.496849 -0.867828 -0.00385036 0.00424479 8355711 
0.610859 0.0756731 -0.0186195 -0.456025 -0.889958 0.0040367 0.004066 8355711 
0.61345 0.0743312 -0.0286188 -0.483146 -0.875537 0.00203342 0.0042018 8355711 
0.611066 0.0754648 -0.0286197 -0.440226 -0.897849 0.00828979 0.00389019 8355711 
0.623451 0.0678948 -0.0185786 -0.610666 -0.791514 -0.0243553 0.00463646 8355711 
0.623364 0.0681906 -0.0285864 -0.58925 -0.807843 -0.0131842 0.00310179 8355711 
0.626923 0.0652402 -0.0285595 -0.650625 -0.759253 -0.0149224 0.00680675 8355711 
0.626216 0.0654555 -0.0185547 -0.654879 -0.755382 -0.0230557 0.00677428 8355711 
0.613624 0.0738394 -0.0086054 -0.515286 -0.856923 -0.0127865 0.00486737 8355711 
0.609753 0.0758942 -0.00861111 -0.435522 -0.900176 0.00169457 0.00468624 8355711 
0.623533 0.0672989 -0.0085647 -0.62822 -0.777582 -0.0265699 0.00517467 8355711 
0.62531 0.0656738 -0.00854818 -0.651627 -0.758353 -0.0168086 0.00620072 8355711 
0.613711 0.0735434 0.00140234 -0.524237 -0.851571 0.00154934 0.00492637 8355711 
0.609147 0.0761082 0.00139274 -0.428373 -0.903594 -0.00384285 0.00312056 8355711 
0.623621 0.067103 0.00144098 -0.632948 -0.774141 -0.0090805 0.00482996 8355711 
0.624904 0.0658849 0.00145379 -0.651091 -0.758993 -0.00315358 0.00574855 8355711 
0.453401 0.0908922 -0.057466 -0.0486433 -0.998126 0.0371306 0.000108198 8355711 
0.443309 0.0908306 -0.0673728 -0.0534241 -0.997651 0.0428779 9.50736e-05 8355711 
0.453308 0.0906883 -0.0674635 -0.0486675 -0.997884 0.0431124 0.000139385 8355711 
0.443404 0.0911345 -0.0573774 -0.0541749 -0.997813 0.0378688 9.39776e-05 8355711 
0.463396 0.0904498 -0.0575506 -0.0416631 -0.998547 0.0341673 9.75991e-05 8355711 
0.463303 0.0903459 -0.0675501 -0.0423313 -0.998302 0.0400127 0.000136908 8355711 
0.473394 0.0903075 -0.0576413 -0.0417936 -0.998569 0.0333704 0.000119704 8355711 
0.473295 0.0897038 -0.0676305 -0.0387744 -0.998494 0.0388082 0.000146785 8355711 
0.483387 0.0897654 -0.0577238 -0.0413706 -0.998576 0.0336738 0.000101232 8355711 
0.483292 0.0894613 -0.0677192 -0.0407897 -0.998459 0.0376344 0.000132405 8355711 
0.453495 0.0910962 -0.0474686 -0.0512842 -0.998345 0.0260146 0.000113722 8355711 
0.443502 0.0916383 -0.0473861 -0.0527622 -0.998169 0.0295663 8.18746e-05 8355711 
0.463486 0.0904538 -0.047549 -0.0472983 -0.998654 0.0212963 7.27841e-05 8355711 
0.473483 0.0902116 -0.0476376 -0.0459283 -0.998778 0.0182361 5.4921e-05 8355711 
0.483479 0.0898693 -0.0477242 -0.0423239 -0.998896 0.0203816 0.000113098 8355711 
0.453593 0.0916001 -0.0374773 -0.0541075 -0.998347 0.0193626 0.000122801 8355711 
0.443595 0.0918423 -0.0373886 -0.0571685 -0.998129 0.0216962 8.96014e-05 8355711 
0.463584 0.0909579 -0.0375577 -0.0461849 -0.998771 0.0179635 9.50842e-05 8355711 
0.473578 0.0905155 -0.0376422 -0.0429589 -0.998907 0.0184201 8.19239e-05 8355711 
0.48357 0.0898733 -0.0377227 -0.0403166 -0.998967 0.0209433 8.69222e-05 8355711 
0.493377 0.0890231 -0.0578022 -0.0465204 -0.998312 0.0347748 0.000100647 8355711 
0.493285 0.088919 -0.0678017 -0.0485179 -0.998212 0.0349093 0.000114915 8355711 
0.503369 0.088381 -0.0578826 -0.0499572 -0.998154 0.0345281 8.62447e-05 8355711 
0.503275 0.088177 -0.06788 -0.0533313 -0.997996 0.0340637 5.08154e-05 8355711 
0.513362 0.0878387 -0.0579651 -0.0539175 -0.998051 0.0314241 0.000123008 8355711 
0.513267 0.0875348 -0.0679605 -0.052186 -0.998085 0.0332258 5.94631e-05 8355711 
0.523359 0.0875964 -0.0580537 -0.0548108 -0.997986 0.0319193 0.000122232 8355711 
0.523265 0.0873924 -0.0680512 -0.0510122 -0.997944 0.0388141 5.47359e-05 8355711 
0.493472 0.089327 -0.0478067 -0.0427476 -0.998799 0.0239427 0.000157232 8355711 
0.503468 0.0889849 -0.0478933 -0.0462331 -0.998528 0.0283599 0.000110031 8355711 
0.513458 0.0882426 -0.0479717 -0.0519342 -0.998153 0.0315333 0.000138704 8355711 
0.523454 0.0879003 -0.0480583 -0.0531787 -0.998078 0.0318129 0.00013211 8355711 
0.493566 0.089531 -0.0378093 -0.0433959 -0.998851 0.0203253 0.000143775 8355711 
0.503567 0.0895886 -0.0379041 -0.0460652 -0.998655 0.0238078 0.000119371 8355711 
0.51356 0.0890465 -0.0379866 -0.0491005 -0.998389 0.0284409 0.000160461 8355711 
0.523547 0.0881043 -0.0380608 -0.0490338 -0.998335 0.030364 0.000173524 8355711 
0.563329 0.0853274 -0.0583816 -0.0711025 -0.996614 0.0412823 0.000206458 8355711 
0.558833 0.0855914 -0.0583449 -0.0677849 -0.996929 0.0392044 0.000193873 8355711 
0.563236 0.0851234 -0.0683791 -0.0753834 -0.996207 0.043467 0.000189769 8355711 
0.560339 0.0853646 -0.0683569 -0.0725205 -0.99653 0.0408394 0.000169446 8355711 
0.533353 0.087154 -0.0581383 -0.0540875 -0.998082 0.0301226 9.478e-05 8355711 
0.53326 0.08695 -0.0681357 -0.0509469 -0.998016 0.0370041 7.1603e-05 8355711 
0.543345 0.0865118 -0.0582187 -0.0526016 -0.998164 0.0300402 9.65539e-05 8355711 
0.543251 0.0863078 -0.0682162 -0.0542224 -0.997908 0.0352088 8.08092e-05 8355711 
0.553338 0.0859698 -0.0583012 -0.0522588 -0.998066 0.0336554 0.000124882 8355711 
0.553246 0.0858656 -0.0683007 -0.059682 -0.997479 0.0383969 9.49486e-05 8355711 
0.563424 0.0856315 -0.0483862 -0.0706122 -0.996764 0.0384007 0.000199119 8355711 
0.559426 0.0857883 -0.048352 -0.0600452 -0.997563 0.0355193 0.000193653 8355711 
0.533445 0.0872581 -0.0481388 -0.0533918 -0.99811 0.0304361 0.000114478 8355711 
0.543441 0.0869158 -0.0482253 -0.0519357 -0.998207 0.0297559 8.56174e-05 8355711 
0.553429 0.0859738 -0.0482996 -0.0523167 -0.99811 0.0322465 0.000104764 8355711 
0.563443 0.0857681 -0.0465887 -0.0714387 -0.996541 0.042456 0.000175535 8355711 
0.533533 0.0870622 -0.0381331 -0.0475523 -0.998189 0.0368353 0.000187776 8355711 
0.543532 0.0869198 -0.0382238 -0.0497828 -0.997945 0.0403501 0.000119279 8355711 
0.553528 0.0865775 -0.0383103 -0.0521684 -0.997801 0.0408892 9.14666e-05 8355711 
0.563524 0.0862354 -0.038397 -0.069253 -0.996777 0.0404924 0.00019287 8355711 
0.573324 0.0848852 -0.0584662 -0.110698 -0.99292 0.0430774 0.000750609 8355711 
0.573224 0.0842812 -0.0684554 -0.111525 -0.992949 0.0401784 0.000638915 8355711 
0.583304 0.0834434 -0.0585302 -0.170436 -0.984465 0.0421836 0.00160804 8355711 
0.583205 0.0828394 -0.0685194 -0.173822 -0.984006 0.0389606 0.00125018 8355711 
0.593273 0.0812014 -0.0585778 -0.257659 -0.965479 0.038245 0.00122135 8355711 
0.593181 0.0810975 -0.0685773 -0.251853 -0.967147 0.0345987 0.00103451 8355711 
0.603229 0.0780602 -0.0586069 -0.346751 -0.937829 0.0155472 0.00326495 8355711 
0.603141 0.0782559 -0.0686126 -0.327652 -0.944555 0.0214532 0.00254194 8355711 
0.573416 0.0849893 -0.0484667 -0.110907 -0.992979 0.0411481 0.000781679 8355711 
0.583405 0.0841472 -0.048543 -0.185127 -0.982013 0.0371432 0.00206239 8355711 
0.593367 0.0814054 -0.0485803 -0.258621 -0.965474 0.0312268 0.00134683 8355711 
0.603322 0.0781641 -0.0486074 -0.354282 -0.935037 0.0137768 0.003452 8355711 
0.571118 0.0858271 -0.0384597 -0.093448 -0.994474 0.0478464 0.000762446 8355711 
0.573516 0.0856931 -0.0384794 -0.11604 -0.992321 0.0428214 0.000926811 8355711 
0.583501 0.0845511 -0.0385496 -0.186596 -0.981628 0.0398673 0.00188479 8355711 
0.593469 0.0822093 -0.0385952 -0.258005 -0.965808 0.0254697 0.0015537 8355711 
0.603419 0.0786679 -0.0386161 -0.365951 -0.930415 0.0202195 0.00294646 8355711 
0.632978 0.0600385 -0.0585177 -0.683936 -0.729512 -0.00662661 0.00504245 8355711 
0.628142 0.0646068 -0.0585656 -0.635475 -0.771936 -0.0169528 0.00724778 8355711 
0.632891 0.0603343 -0.0685254 -0.680214 -0.732916 -0.0119699 0.00475289 8355711 
0.628348 0.0643985 -0.0685658 -0.647749 -0.761809 0.00820305 0.005217 8355711 
0.613179 0.074419 -0.0586257 -0.451028 -0.892505 -0.00302206 0.0043539 8355711 
0.612085 0.0748343 -0.058624 -0.451235 -0.8924 -0.00305606 0.00428623 8355711 
0.613095 0.0746228 -0.0682315 -0.443898 -0.895993 0.0122633 0.00400243 8355711 
0.613091 0.0746147 -0.0686314 -0.444994 -0.895512 0.00625861 0.00418562 8355711 
